ncols         400
nrows         30
xllcorner     2760
yllcorner     13710
cellsize      30
NODATA_value  -9999
1730.27 1739.15 1733.46 1749.82 1740.53 1752.47 1777.13 1769.20 1805.22 1771.66 1787.71 1800.65 1810.35 1838.53 1832.11 1823.40 1822.13 1800.52 1814.88 1828.89 1794.75 1789.79 1796.33 1804.33 1809.30 1803.27 1780.26 1811.79 1770.47 1773.34 1782.45 1761.28 1776.06 1782.69 1754.06 1711.13 1728.07 1721.89 1703.43 1684.45 1676.20 1649.68 1654.69 1641.68 1630.10 1655.48 1620.73 1636.95 1631.42 1637.42 1587.46 1614.98 1598.76 1610.81 1606.01 1590.25 1613.00 1592.36 1565.57 1592.88 1548.62 1542.83 1556.32 1527.97 1533.47 1532.50 1546.96 1510.89 1522.90 1537.13 1520.72 1521.45 1525.65 1508.15 1498.72 1483.30 1494.75 1482.54 1459.59 1450.90 1425.25 1439.53 1413.55 1415.59 1413.32 1411.04 1433.84 1407.26 1382.39 1406.04 1411.98 1385.92 1397.05 1405.68 1409.64 1391.56 1399.96 1398.92 1404.76 1408.02 1392.79 1407.88 1387.45 1392.31 1403.32 1399.52 1418.64 1434.10 1455.28 1456.58 1470.08 1480.04 1462.23 1485.16 1501.52 1501.96 1504.17 1494.95 1498.78 1486.52 1459.02 1496.70 1494.07 1470.84 1478.86 1472.33 1499.39 1473.36 1495.86 1477.85 1508.18 1494.75 1484.62 1463.02 1486.89 1462.74 1434.73 1442.92 1440.44 1427.58 1415.66 1404.76 1391.98 1394.11 1369.45 1355.16 1368.77 1369.40 1356.32 1365.69 1345.15 1359.88 1373.86 1347.66 1350.92 1358.22 1359.62 1339.84 1304.21 1314.17 1322.76 1293.09 1299.76 1291.31 1261.09 1271.74 1264.73 1272.64 1279.90 1269.22 1277.60 1243.97 1244.50 1246.96 1250.46 1218.93 1222.26 1184.32 1197.91 1197.91 1156.42 1148.70 1149.70 1138.21 1117.97 1138.98 1110.40 1100.07 1101.02 1095.45 1091.52 1084.52 1105.61 1079.46 1076.95 1064.81 1065.77 1053.11 1056.23 1041.88 1035.83 1027.08 1036.65 1026.33 1048.71 1040.82 1043.72 1062.36 1074.27 1073.27 1055.68 1077.48 1082.08 1090.05 1097.46 1103.27 1095.50 1099.81 1101.46 1089.89 1099.32 1087.38 1061.84 1092.77 1094.08 1074.08 1095.60 1060.89 1083.50 1066.44 1074.96 1059.70 1074.40 1055.50 1074.55 1041.70 1048.70 1019.40 1007.91 1011.76 1018.29 995.08 980.16 970.26 992.69 955.93 970.43 990.91 956.31 975.68 961.01 978.66 988.87 1001.40 983.08 967.72 955.28 943.49 926.82 953.92 908.72 938.23 927.25 943.32 917.91 931.22 934.55 930.37 922.29 926.65 906.70 933.63 930.96 911.07 920.90 920.73 905.15 873.90 905.94 873.81 873.60 844.36 839.31 848.13 848.55 849.29 849.49 864.23 866.28 882.44 878.37 871.07 885.59 895.90 914.05 884.88 903.63 889.86 904.73 890.21 918.26 907.69 917.66 952.62 953.71 934.98 962.50 987.34 1003.54 1014.53 1035.92 1058.21 1085.57 1065.73 1085.85 1110.27 1124.40 1122.19 1098.19 1114.57 1111.98 1133.53 1149.28 1123.51 1121.33 1136.41 1158.15 1182.97 1169.31 1170.59 1192.01 1193.59 1207.91 1220.32 1195.69 1206.23 1188.28 1191.45 1179.66 1183.55 1180.19 1186.05 1179.70 1172.94 1168.81 1210.86 1190.15 1181.10 1214.32 1191.45 1221.20 1230.81 1216.70 1245.65 1271.99 1222.86 1234.19 1219.05 1218.70 1223.66 1228.58 1214.50 1216.26 1224.60 1238.02 1230.78 1216.75 1237.18 1223.80 1251.69 1244.46 1242.76 1240.43 1251.26 1244.93 1240.70 1233.19 1221.02 1211.67 1211.20 1199.13 1204.37 1173.64 1178.44 1177.86 1173.06 1170.39 1177.08 1181.27 1190.45 1180.83 1182.67 1177.37 1196.91 1206.80 1193.18 1178.70 1175.62 1172.09 1183.54
1742.33 1728.10 1743.37 1745.43 1730.90 1751.58 1760.98 1757.24 1788.44 1773.42 1808.99 1825.74 1808.94 1812.93 1813.22 1814.24 1805.75 1814.58 1801.56 1805.19 1790.12 1798.04 1785.64 1778.46 1775.71 1790.69 1766.13 1787.23 1780.77 1788.92 1780.03 1759.14 1769.50 1757.85 1743.42 1723.91 1745.14 1724.75 1692.82 1690.77 1676.16 1654.99 1646.18 1633.31 1625.12 1622.06 1633.92 1607.62 1632.57 1625.17 1645.07 1621.74 1607.93 1599.63 1588.36 1589.30 1598.19 1575.73 1571.86 1557.32 1521.94 1574.22 1525.39 1547.95 1536.77 1522.82 1507.28 1501.18 1538.66 1518.98 1508.01 1501.38 1513.10 1504.21 1491.07 1509.02 1491.86 1460.25 1467.60 1454.23 1454.70 1430.35 1428.33 1428.20 1411.63 1398.24 1379.33 1414.19 1379.20 1408.01 1405.87 1409.96 1413.89 1382.75 1397.81 1397.48 1415.35 1370.14 1376.86 1385.96 1388.19 1407.43 1375.99 1378.54 1396.13 1408.96 1396.15 1421.26 1443.63 1464.13 1438.80 1489.95 1471.19 1472.55 1495.45 1507.13 1480.40 1493.76 1474.43 1456.22 1495.29 1486.47 1486.88 1473.05 1475.39 1458.34 1491.29 1486.81 1478.46 1485.93 1490.98 1482.16 1481.62 1468.52 1470.12 1493.10 1441.52 1450.35 1444.37 1398.83 1408.30 1388.12 1381.47 1387.49 1382.39 1388.48 1373.88 1371.86 1367.87 1357.01 1355.28 1366.11 1337.72 1361.66 1347.66 1340.89 1333.91 1338.01 1289.64 1314.33 1303.80 1275.64 1285.88 1271.96 1267.82 1283.44 1250.51 1250.62 1282.95 1240.31 1254.69 1272.99 1251.09 1243.73 1248.17 1230.38 1221.29 1184.47 1170.46 1166.86 1181.09 1127.88 1126.29 1121.13 1109.91 1094.69 1100.72 1085.11 1092.23 1073.96 1081.21 1081.70 1057.87 1062.90 1090.05 1062.44 1062.35 1064.69 1052.05 1031.62 1040.42 1042.23 1038.02 1019.69 1027.66 1026.16 1037.39 1034.04 1054.21 1096.87 1079.54 1091.57 1082.58 1077.33 1093.85 1065.91 1087.53 1094.21 1108.02 1078.69 1103.17 1066.88 1087.99 1058.94 1067.35 1067.44 1068.69 1059.86 1073.47 1059.03 1071.31 1072.60 1080.00 1055.41 1055.83 1031.36 1051.93 1043.52 1010.95 1020.90 1004.05 992.01 1000.80 952.65 963.01 971.59 974.12 968.32 971.00 969.14 985.33 974.19 976.77 967.35 967.94 953.60 963.82 950.34 914.95 934.71 938.18 926.40 936.66 912.68 889.78 940.80 931.18 935.88 911.68 931.13 929.21 899.69 912.31 909.75 896.01 919.96 919.27 877.14 892.37 879.32 851.58 840.18 839.65 826.48 828.71 844.70 843.50 856.19 872.53 853.70 856.64 869.57 886.84 870.89 883.41 869.48 875.55 893.22 887.56 886.23 879.57 882.73 914.88 919.80 930.33 960.61 968.04 993.51 985.38 1028.06 1041.55 1034.10 1066.10 1084.15 1075.59 1081.70 1114.04 1102.78 1115.35 1113.53 1084.95 1117.98 1127.17 1130.67 1142.14 1138.92 1180.74 1160.88 1183.72 1213.89 1206.06 1190.36 1209.38 1193.47 1220.64 1211.82 1197.87 1197.84 1178.52 1179.85 1198.34 1185.28 1206.29 1177.42 1202.21 1160.15 1185.71 1201.14 1221.07 1201.47 1187.51 1225.63 1208.58 1202.16 1255.06 1215.24 1245.25 1214.45 1243.90 1221.28 1222.71 1208.01 1219.69 1211.58 1220.30 1221.26 1241.81 1225.28 1243.66 1253.36 1245.72 1236.01 1237.11 1248.41 1226.90 1236.36 1214.66 1218.80 1219.72 1207.89 1190.16 1190.51 1203.47 1197.08 1193.69 1175.27 1201.97 1156.74 1166.27 1192.09 1178.47 1188.73 1194.74 1183.10 1195.99 1190.62 1194.48 1163.97 1174.20 1156.44
1706.64 1738.72 1736.95 1740.02 1740.89 1755.71 1757.84 1758.38 1784.86 1776.68 1812.89 1808.02 1813.15 1831.41 1822.14 1817.35 1821.04 1811.70 1807.74 1800.57 1796.92 1805.14 1770.39 1770.11 1758.68 1790.84 1783.28 1799.79 1794.53 1781.06 1788.62 1766.54 1756.34 1757.19 1740.16 1735.77 1723.67 1693.75 1720.66 1679.34 1644.21 1658.64 1649.77 1633.87 1647.97 1615.88 1635.41 1615.10 1624.70 1617.67 1623.09 1606.16 1615.49 1617.86 1592.17 1576.81 1578.16 1586.67 1566.95 1522.98 1552.27 1561.85 1525.51 1541.40 1505.13 1547.19 1511.78 1494.11 1519.58 1522.90 1515.67 1508.02 1500.25 1503.79 1496.89 1482.87 1482.24 1471.11 1484.54 1431.47 1441.85 1436.94 1418.17 1419.13 1419.46 1392.83 1398.37 1407.50 1390.21 1408.60 1391.67 1393.17 1385.97 1416.75 1398.07 1393.93 1389.43 1374.80 1391.49 1381.80 1388.86 1382.49 1385.63 1379.43 1413.60 1391.24 1417.75 1437.44 1428.53 1477.16 1465.28 1454.80 1447.91 1480.14 1482.13 1488.41 1485.57 1481.46 1495.50 1472.70 1487.60 1493.46 1465.86 1466.84 1458.70 1480.19 1466.28 1478.11 1464.47 1473.97 1446.94 1470.09 1474.92 1465.51 1469.11 1454.79 1436.71 1413.60 1418.18 1416.93 1391.08 1409.62 1377.59 1368.80 1346.36 1359.80 1360.28 1364.31 1372.40 1353.85 1351.15 1371.05 1351.81 1354.16 1345.12 1338.33 1333.35 1340.39 1313.95 1312.58 1299.51 1273.00 1279.86 1288.80 1273.93 1249.67 1254.62 1271.86 1263.94 1266.32 1236.54 1232.37 1228.78 1253.20 1235.55 1204.33 1193.89 1191.64 1175.26 1145.04 1138.77 1130.04 1114.48 1103.38 1096.73 1107.68 1092.81 1097.18 1105.10 1078.67 1060.70 1063.17 1063.98 1072.39 1078.59 1047.75 1063.73 1026.03 1057.43 1055.77 1014.69 1037.19 1029.05 1023.47 1019.37 1011.21 1027.48 1023.09 1061.85 1062.36 1093.02 1066.40 1099.34 1085.74 1101.31 1083.14 1070.46 1064.93 1090.37 1077.22 1076.92 1067.76 1058.98 1047.08 1079.83 1088.76 1050.17 1059.76 1076.54 1055.39 1075.21 1087.02 1062.33 1058.74 1048.22 1048.57 1031.56 1028.11 1017.53 990.68 989.39 1004.34 971.16 973.38 964.54 980.49 960.18 949.00 965.93 974.02 964.58 969.51 979.42 974.95 971.21 983.78 970.52 941.33 926.59 958.06 939.76 931.14 922.33 907.28 912.94 897.93 916.57 904.13 923.13 918.45 911.06 908.15 889.12 915.60 898.52 916.42 891.46 900.56 894.83 876.39 865.91 852.61 843.76 854.64 855.06 870.36 857.91 857.80 839.94 862.24 871.40 871.85 872.55 869.96 866.64 885.67 875.96 893.08 895.63 900.94 904.72 917.25 913.31 934.56 939.57 951.38 958.00 991.91 993.37 1027.50 1032.31 1056.13 1072.41 1091.83 1079.09 1081.63 1108.23 1101.43 1085.68 1119.82 1107.65 1129.33 1145.89 1134.61 1163.40 1123.89 1171.42 1169.79 1171.39 1169.50 1192.59 1187.23 1216.85 1195.32 1204.41 1207.92 1195.16 1181.37 1190.14 1172.51 1171.47 1170.24 1178.08 1181.40 1198.76 1176.23 1191.12 1179.71 1172.88 1201.53 1225.53 1209.36 1214.39 1225.50 1229.69 1251.90 1214.10 1222.56 1230.93 1224.18 1202.59 1200.19 1215.29 1229.81 1190.01 1239.54 1234.70 1223.21 1250.39 1262.04 1231.54 1236.62 1227.67 1252.70 1232.07 1224.33 1212.18 1240.22 1204.49 1198.41 1193.17 1191.16 1195.63 1183.93 1166.27 1165.58 1171.53 1176.63 1186.67 1164.80 1172.02 1159.60 1181.43 1166.69 1189.90 1162.76 1174.47 1186.32 1172.97 1181.95
1708.89 1727.17 1729.93 1718.49 1735.92 1731.38 1751.88 1743.14 1772.47 1761.82 1803.73 1776.37 1797.79 1796.53 1804.84 1813.35 1820.98 1821.41 1809.57 1789.85 1777.64 1803.30 1809.99 1748.40 1769.03 1786.69 1759.28 1772.85 1755.35 1780.89 1764.57 1787.96 1758.79 1751.30 1747.48 1736.42 1703.46 1692.65 1690.41 1679.03 1638.55 1660.11 1651.60 1634.23 1628.79 1614.89 1612.95 1598.32 1605.33 1604.97 1621.45 1601.61 1599.64 1612.90 1585.52 1578.10 1582.06 1582.61 1572.54 1547.36 1534.49 1525.46 1528.19 1528.51 1551.82 1517.93 1514.48 1505.53 1527.13 1503.74 1522.82 1497.73 1499.60 1510.05 1495.76 1487.80 1457.27 1458.41 1457.99 1435.20 1420.17 1423.45 1405.56 1417.60 1403.31 1378.99 1389.78 1406.14 1373.10 1383.39 1391.00 1380.94 1379.57 1383.88 1373.58 1407.17 1380.64 1374.21 1391.08 1383.17 1379.07 1372.65 1359.16 1373.74 1396.47 1386.59 1403.95 1410.69 1414.75 1431.86 1457.35 1452.57 1477.45 1490.01 1462.30 1477.00 1487.63 1472.53 1484.62 1476.30 1459.83 1472.75 1478.51 1463.30 1450.75 1476.23 1480.16 1463.47 1465.92 1478.42 1476.61 1490.21 1458.74 1453.92 1463.09 1458.24 1439.24 1424.66 1427.20 1408.82 1399.29 1376.74 1376.64 1382.01 1373.25 1351.18 1346.31 1335.18 1351.03 1363.21 1332.22 1344.44 1336.12 1349.97 1326.54 1332.74 1315.17 1334.43 1308.99 1284.44 1286.87 1292.78 1293.55 1289.52 1263.98 1268.10 1276.40 1260.46 1276.07 1277.37 1248.38 1255.08 1234.34 1247.07 1232.45 1207.62 1199.68 1201.07 1163.88 1179.67 1136.71 1124.93 1129.91 1102.38 1107.52 1102.41 1083.46 1085.81 1073.57 1088.24 1065.87 1074.03 1083.45 1066.93 1047.76 1065.07 1030.84 1046.94 1031.12 1038.35 1037.40 1042.42 1026.18 1042.49 1033.52 1043.03 1021.60 1047.66 1074.18 1062.51 1060.11 1076.78 1080.20 1082.38 1079.20 1082.09 1078.35 1068.10 1082.99 1092.02 1055.81 1055.24 1057.67 1059.49 1056.58 1066.26 1057.48 1071.15 1059.45 1027.26 1081.26 1070.02 1020.32 1053.20 1057.28 1039.74 1043.69 1025.02 983.40 971.84 1004.69 1003.41 967.03 974.40 965.96 959.76 953.04 964.19 953.39 962.13 952.29 944.24 966.07 960.80 966.44 959.04 952.91 939.80 935.34 938.86 916.77 928.73 921.06 909.84 907.39 913.02 907.38 922.53 926.67 924.81 926.26 901.24 936.01 930.29 912.78 900.17 881.77 887.65 879.44 873.93 865.62 839.78 855.59 837.94 844.78 838.82 839.94 840.05 850.62 848.58 867.92 886.30 883.51 886.00 872.60 885.29 897.21 891.28 893.25 897.00 899.20 894.84 903.36 943.55 932.85 941.95 946.85 992.41 1000.61 1015.72 1026.52 1037.48 1061.97 1047.19 1081.03 1094.78 1091.32 1096.69 1097.73 1113.23 1122.69 1138.27 1144.31 1145.50 1142.70 1140.08 1163.17 1165.16 1180.73 1203.05 1189.53 1179.99 1178.91 1213.22 1207.72 1179.40 1194.77 1173.08 1178.85 1187.20 1180.89 1191.46 1156.81 1146.38 1195.46 1180.64 1186.22 1191.34 1182.88 1177.67 1200.43 1198.67 1197.03 1218.19 1211.29 1237.27 1235.55 1229.09 1213.30 1231.32 1191.81 1232.42 1216.81 1212.48 1218.04 1224.40 1228.86 1229.13 1247.63 1240.66 1239.62 1220.95 1223.21 1234.03 1234.66 1226.94 1220.07 1228.35 1222.56 1188.58 1166.76 1190.35 1163.99 1160.14 1162.37 1186.43 1184.26 1173.01 1167.85 1190.25 1185.45 1164.47 1195.54 1172.99 1174.16 1176.90 1175.56 1161.95 1197.98 1153.77
1714.33 1707.21 1695.95 1731.75 1747.00 1725.49 1733.28 1767.78 1774.54 1784.45 1786.02 1794.10 1788.98 1827.75 1798.20 1793.49 1812.96 1795.58 1790.40 1809.41 1782.20 1799.55 1783.68 1761.88 1774.03 1767.81 1766.67 1771.22 1744.26 1766.06 1773.53 1763.42 1746.38 1759.94 1740.24 1732.43 1714.62 1719.46 1710.98 1651.93 1643.49 1645.27 1631.17 1647.86 1620.04 1613.17 1591.97 1610.07 1615.20 1614.12 1588.42 1603.09 1618.66 1611.48 1597.24 1592.14 1559.39 1551.01 1551.17 1534.90 1515.13 1526.92 1536.35 1524.14 1513.44 1521.95 1510.31 1499.24 1514.91 1507.17 1510.71 1502.81 1483.12 1500.56 1471.72 1482.98 1466.54 1448.82 1443.26 1433.84 1417.52 1404.73 1407.61 1381.35 1358.11 1376.35 1387.19 1394.24 1389.38 1391.33 1396.61 1366.82 1367.07 1374.79 1390.83 1372.27 1382.26 1365.27 1374.80 1371.78 1379.34 1371.71 1378.96 1384.56 1363.28 1400.52 1420.94 1394.23 1414.11 1450.28 1434.49 1454.27 1453.06 1465.90 1469.04 1452.21 1462.05 1476.46 1454.69 1466.90 1446.12 1468.41 1464.45 1455.30 1463.55 1498.21 1453.04 1450.16 1442.14 1462.63 1486.67 1452.35 1458.97 1466.52 1448.74 1428.49 1417.39 1414.45 1399.94 1380.18 1383.08 1376.16 1374.11 1382.88 1346.27 1366.53 1367.33 1349.38 1332.62 1336.02 1341.62 1367.11 1348.14 1338.40 1325.14 1322.21 1340.46 1306.77 1310.79 1279.61 1297.27 1286.80 1264.59 1249.02 1262.20 1252.58 1241.22 1249.90 1276.78 1246.21 1231.05 1248.74 1215.07 1230.48 1223.74 1205.48 1192.28 1167.31 1133.77 1160.68 1130.35 1129.05 1121.46 1103.14 1093.30 1068.95 1075.62 1068.99 1066.78 1099.81 1049.24 1076.17 1056.62 1044.16 1046.73 1033.36 1036.31 1008.17 1016.52 1026.54 1002.53 1008.32 1024.76 1027.22 1017.66 1020.80 1014.70 1037.41 1061.02 1055.54 1059.21 1044.17 1065.89 1072.73 1082.60 1075.74 1080.56 1065.38 1086.98 1061.11 1054.43 1072.04 1060.29 1061.33 1071.12 1061.52 1037.94 1065.63 1034.74 1072.86 1063.19 1071.66 1060.60 1050.99 1060.12 1022.33 1017.47 1013.01 1013.26 1023.64 966.01 989.14 964.30 967.45 951.73 949.57 948.09 960.25 964.62 951.46 948.63 947.86 938.09 953.55 958.08 957.06 946.37 950.65 935.93 943.18 956.77 914.52 947.93 894.94 921.76 896.96 919.61 889.32 901.81 903.63 908.39 906.00 908.06 935.10 888.78 888.60 897.00 901.89 866.44 861.12 847.29 830.92 870.49 844.78 834.72 834.62 841.19 861.15 841.16 873.26 848.14 872.21 850.21 844.85 882.69 871.44 863.47 879.77 874.76 897.49 896.59 889.94 908.02 921.63 940.06 933.51 953.03 972.00 986.39 1013.85 1027.56 1060.68 1039.09 1053.00 1079.67 1073.80 1108.85 1084.65 1109.70 1092.23 1117.59 1091.66 1147.53 1135.05 1139.55 1165.19 1137.53 1147.28 1188.15 1199.60 1171.57 1172.05 1204.50 1204.61 1174.50 1202.28 1186.84 1175.29 1194.11 1181.43 1177.40 1168.23 1165.81 1163.37 1193.46 1178.63 1189.89 1193.70 1196.66 1196.21 1189.96 1195.29 1195.61 1237.07 1214.48 1217.05 1211.62 1218.45 1206.38 1202.10 1199.45 1211.45 1227.00 1216.79 1203.02 1212.22 1223.12 1240.48 1238.59 1220.19 1245.13 1241.79 1252.58 1240.67 1229.56 1224.42 1228.14 1211.17 1212.47 1199.36 1169.28 1150.66 1168.43 1183.61 1154.35 1171.07 1157.27 1152.09 1174.64 1200.09 1166.97 1167.64 1181.24 1171.41 1176.35 1177.78 1154.52 1157.01 1180.57 1166.50
1717.54 1700.58 1727.63 1719.88 1743.20 1728.18 1727.68 1758.21 1772.91 1769.11 1782.81 1778.19 1818.25 1794.06 1787.94 1788.47 1815.92 1820.42 1793.94 1787.42 1772.23 1789.07 1785.87 1801.20 1757.60 1753.34 1781.40 1771.41 1772.66 1757.13 1730.96 1766.21 1746.23 1728.04 1725.37 1718.56 1723.94 1697.50 1674.17 1683.81 1636.17 1619.29 1642.94 1629.58 1610.18 1614.51 1608.34 1585.23 1590.48 1614.92 1595.82 1591.84 1588.87 1614.77 1578.74 1557.70 1580.69 1558.32 1567.61 1558.13 1536.86 1516.69 1529.73 1500.16 1508.26 1506.38 1501.80 1509.15 1516.59 1476.80 1491.74 1512.35 1499.10 1465.89 1474.20 1483.58 1468.76 1474.24 1433.52 1406.15 1426.42 1410.61 1404.58 1376.42 1367.08 1394.57 1373.20 1351.98 1392.35 1373.02 1383.62 1372.04 1364.22 1367.49 1379.00 1387.04 1363.18 1351.06 1365.96 1349.96 1372.93 1356.39 1371.17 1354.65 1367.79 1401.68 1401.79 1408.81 1426.05 1419.99 1447.68 1414.15 1442.63 1486.95 1480.66 1459.71 1458.36 1479.70 1456.57 1456.23 1467.31 1455.06 1467.39 1450.38 1437.59 1443.91 1412.27 1427.47 1455.47 1452.97 1456.74 1481.30 1437.36 1442.22 1452.67 1453.64 1430.60 1402.74 1393.28 1375.85 1349.38 1361.02 1362.06 1336.34 1343.64 1357.35 1354.23 1341.66 1338.92 1340.81 1339.82 1315.23 1341.16 1317.57 1335.97 1336.79 1307.98 1314.13 1289.21 1285.70 1280.73 1246.02 1265.71 1264.90 1252.10 1250.88 1242.07 1239.82 1239.32 1236.10 1240.23 1252.81 1238.54 1207.84 1209.52 1187.18 1165.32 1175.47 1185.15 1139.59 1135.92 1130.51 1112.26 1107.27 1088.34 1077.44 1054.12 1051.82 1086.63 1063.49 1054.41 1073.43 1067.72 1051.35 1050.17 1019.73 1019.44 1012.71 1018.27 1017.56 1025.70 996.51 1023.97 1006.05 999.86 1005.04 1029.29 1020.32 1041.31 1038.67 1052.53 1053.90 1061.86 1071.10 1061.03 1074.60 1089.13 1051.44 1060.75 1049.16 1067.85 1048.43 1081.03 1049.62 1059.39 1050.04 1045.05 1040.21 1047.30 1052.47 1043.05 1053.56 1034.28 1051.86 1037.66 1031.75 1031.22 1005.41 1012.73 990.61 974.60 963.51 972.84 951.41 950.19 965.81 969.11 960.25 949.90 946.05 969.43 971.33 957.12 952.57 948.12 951.05 937.14 928.45 909.14 918.08 913.78 918.08 917.08 909.79 907.16 890.91 891.01 915.21 912.47 902.85 909.01 912.51 927.59 901.09 890.42 906.76 881.99 885.32 873.01 869.33 858.63 850.87 842.98 829.81 827.34 855.80 838.65 826.73 846.57 845.19 853.84 836.38 869.42 884.96 875.66 874.24 887.65 880.75 875.59 885.56 872.77 873.48 887.53 919.80 925.29 921.80 955.97 989.18 995.85 1009.56 1026.98 1035.76 1061.92 1066.17 1081.77 1080.63 1075.96 1106.58 1105.57 1105.60 1108.89 1121.95 1143.15 1114.71 1128.50 1131.27 1155.12 1123.24 1187.05 1172.22 1175.62 1186.85 1199.72 1183.93 1191.90 1222.93 1177.05 1183.58 1189.66 1168.57 1169.23 1149.87 1145.76 1169.93 1150.74 1152.21 1165.24 1173.35 1203.78 1213.86 1211.80 1202.73 1223.22 1201.70 1216.35 1220.74 1213.95 1205.98 1210.02 1192.34 1207.86 1210.52 1215.15 1189.63 1210.97 1213.81 1221.57 1237.50 1221.57 1252.04 1234.26 1239.05 1236.93 1247.58 1234.02 1223.30 1195.07 1197.18 1198.60 1188.41 1182.35 1193.00 1143.65 1170.04 1143.54 1166.71 1168.85 1130.89 1172.23 1147.26 1175.07 1170.12 1173.74 1175.20 1147.79 1171.17 1140.78 1166.15 1159.07 1168.08
1689.95 1713.36 1700.50 1715.15 1741.13 1711.27 1732.77 1734.22 1772.88 1761.94 1759.34 1777.11 1777.56 1791.54 1773.69 1785.41 1793.00 1789.75 1760.97 1758.44 1764.53 1784.29 1778.88 1780.31 1753.95 1737.44 1767.24 1757.96 1725.56 1734.76 1735.27 1745.50 1733.93 1731.09 1725.51 1704.12 1715.05 1681.94 1684.75 1664.25 1618.54 1630.71 1622.02 1618.03 1605.03 1602.43 1596.10 1594.72 1592.00 1581.33 1584.60 1566.13 1590.16 1569.09 1594.93 1573.37 1541.12 1540.08 1538.96 1550.41 1533.46 1501.02 1490.20 1489.92 1470.01 1499.71 1490.13 1495.33 1496.65 1490.80 1472.54 1478.62 1481.50 1466.09 1473.56 1460.20 1461.62 1448.54 1409.97 1412.01 1405.49 1417.87 1369.63 1381.49 1378.28 1369.20 1370.31 1371.70 1372.50 1362.71 1369.55 1358.83 1371.29 1380.89 1386.83 1376.93 1364.92 1366.63 1350.68 1335.27 1373.46 1349.56 1340.72 1366.06 1353.48 1362.05 1386.48 1368.90 1406.14 1410.43 1411.41 1413.00 1415.79 1450.92 1443.91 1454.09 1459.76 1456.47 1449.66 1486.24 1444.69 1440.17 1474.72 1433.76 1456.68 1462.15 1436.74 1436.77 1459.22 1446.38 1434.64 1464.84 1420.54 1428.90 1432.17 1423.49 1405.67 1399.29 1401.22 1378.23 1361.35 1348.18 1345.69 1369.79 1346.70 1330.97 1333.25 1332.70 1327.48 1334.58 1327.36 1317.65 1327.80 1326.22 1322.37 1329.80 1298.16 1280.71 1284.28 1285.80 1275.80 1251.86 1272.24 1245.23 1248.54 1232.94 1228.25 1224.92 1236.06 1230.81 1204.36 1218.81 1208.78 1202.86 1199.04 1191.22 1167.70 1173.16 1139.04 1131.32 1116.48 1089.88 1098.44 1097.36 1069.07 1082.18 1068.08 1041.58 1067.60 1057.68 1056.71 1045.55 1032.30 1031.13 1018.51 1013.13 996.90 1026.13 1027.02 997.44 997.08 1002.55 1009.50 996.25 1006.76 1018.16 1005.04 1019.48 1015.96 1039.02 1014.79 1043.54 1051.29 1044.99 1064.76 1050.50 1051.98 1058.55 1053.30 1067.12 1059.50 1035.09 1039.55 1037.03 1034.65 1050.64 1019.03 1049.33 1037.24 1030.03 1038.11 1051.25 1041.13 1023.51 1018.60 1033.12 1019.89 994.03 988.84 968.70 985.13 954.37 959.41 933.91 949.76 942.73 943.03 958.23 963.08 966.31 957.51 938.10 952.56 926.73 957.65 944.41 935.80 946.79 942.66 915.31 915.72 907.86 888.39 888.20 870.51 878.03 902.91 898.16 902.30 891.51 900.73 906.37 893.07 905.83 895.49 901.81 873.52 885.07 866.07 850.64 847.86 831.35 819.55 832.26 819.60 830.25 846.07 825.84 822.95 854.18 850.18 847.47 855.64 863.95 887.82 859.49 889.25 869.99 860.85 875.98 894.13 886.96 889.12 938.51 897.26 920.82 958.96 962.94 968.90 978.88 1024.92 1012.72 1044.41 1067.51 1047.02 1088.72 1075.82 1078.04 1092.12 1082.58 1107.68 1110.66 1119.20 1130.50 1123.83 1130.76 1129.34 1156.19 1151.06 1159.19 1160.98 1173.00 1175.61 1165.66 1162.51 1173.90 1181.72 1179.87 1156.30 1170.76 1160.24 1170.68 1151.72 1176.01 1155.14 1161.59 1149.97 1177.25 1173.83 1165.96 1194.83 1197.92 1201.67 1226.71 1189.90 1225.91 1226.91 1173.62 1195.40 1211.77 1194.79 1171.34 1192.91 1209.41 1219.86 1197.91 1227.35 1224.47 1203.53 1227.77 1231.66 1219.29 1219.77 1227.52 1228.94 1208.38 1218.38 1214.51 1177.49 1187.18 1170.85 1155.41 1168.82 1134.47 1149.33 1184.64 1139.68 1154.05 1130.70 1144.44 1167.18 1166.05 1150.40 1143.92 1178.33 1165.34 1155.79 1154.23 1142.53 1134.10
1696.39 1699.53 1711.35 1699.39 1706.70 1703.18 1709.18 1720.80 1729.74 1743.92 1756.97 1779.60 1760.74 1772.29 1782.99 1800.21 1773.09 1783.68 1781.57 1766.97 1781.80 1750.91 1772.15 1751.98 1738.90 1751.96 1719.69 1762.26 1727.38 1699.12 1741.19 1717.93 1740.08 1698.27 1697.27 1712.03 1688.41 1693.28 1669.55 1651.74 1648.46 1609.31 1592.26 1603.31 1599.18 1588.46 1583.19 1583.83 1610.93 1595.76 1574.21 1552.97 1562.79 1577.20 1557.81 1543.23 1530.44 1535.05 1528.94 1534.65 1525.26 1506.56 1513.31 1461.66 1493.66 1484.97 1477.41 1506.79 1482.71 1459.81 1470.61 1488.63 1474.30 1476.61 1439.68 1437.33 1438.98 1425.26 1435.83 1409.29 1397.50 1383.33 1363.57 1340.12 1351.45 1359.21 1336.28 1364.39 1364.57 1364.17 1350.02 1342.39 1371.91 1353.06 1367.97 1367.12 1344.66 1345.27 1358.81 1338.96 1345.67 1335.00 1333.63 1354.93 1351.89 1342.67 1388.91 1379.58 1377.16 1400.88 1404.25 1418.84 1441.20 1454.57 1441.96 1434.94 1438.43 1443.93 1443.16 1434.86 1447.50 1428.97 1438.64 1434.43 1470.94 1434.94 1431.24 1435.58 1443.82 1439.87 1435.92 1423.35 1429.68 1427.35 1419.53 1409.99 1398.50 1389.29 1380.17 1345.04 1339.58 1350.59 1335.55 1338.23 1325.44 1319.19 1313.98 1305.25 1308.77 1328.08 1310.04 1320.94 1327.87 1335.48 1277.43 1321.33 1286.16 1269.67 1281.96 1263.85 1244.02 1259.01 1246.11 1240.57 1250.29 1238.50 1229.35 1217.28 1227.69 1216.05 1232.65 1185.24 1183.34 1196.37 1184.21 1171.87 1155.55 1171.64 1136.40 1116.00 1094.27 1096.74 1082.51 1068.93 1058.54 1074.77 1053.25 1042.89 1042.45 1036.92 1050.53 1032.96 1035.64 1023.99 1032.71 983.77 1026.79 990.12 997.40 1015.11 958.79 983.37 1000.33 988.76 1001.20 998.03 1017.28 1025.75 1012.38 1022.15 1009.88 1038.81 1046.53 1045.45 1050.91 1051.38 1050.31 1036.88 1031.26 1040.45 1042.48 1016.61 1032.72 1036.48 1038.03 1042.01 1023.62 1029.72 1031.16 1060.21 1019.75 1029.79 1042.31 996.97 1019.69 999.80 1017.99 1008.57 948.00 966.59 968.68 969.90 941.71 946.62 969.16 939.12 912.30 945.59 912.23 934.11 953.47 963.48 947.51 923.31 946.40 928.89 919.19 907.61 917.45 903.26 921.92 921.58 888.76 881.39 894.63 881.61 896.64 888.45 873.78 903.64 873.90 911.69 876.19 876.77 897.32 866.64 872.43 862.04 858.81 857.64 832.44 805.56 806.32 811.92 827.87 813.75 799.05 814.86 826.62 828.90 829.52 838.65 829.51 847.64 833.28 861.77 856.97 874.44 863.26 879.54 863.84 876.76 890.80 878.62 888.45 945.04 935.65 943.28 992.33 983.09 1000.42 1024.29 1024.23 1037.78 1037.86 1079.76 1081.22 1071.93 1079.41 1068.72 1073.98 1120.69 1100.13 1119.00 1127.46 1127.59 1154.19 1139.20 1151.91 1158.74 1162.92 1203.55 1174.09 1176.00 1171.94 1166.00 1169.54 1160.33 1158.49 1165.29 1140.43 1159.73 1155.79 1152.06 1157.31 1146.87 1155.26 1162.40 1192.79 1195.26 1187.75 1192.10 1184.51 1196.23 1188.87 1209.77 1182.64 1182.46 1192.84 1206.37 1152.39 1195.37 1180.02 1176.09 1187.07 1175.41 1189.99 1199.31 1199.72 1232.49 1230.47 1226.00 1215.92 1194.45 1202.80 1188.66 1215.97 1194.76 1188.90 1182.02 1177.88 1179.19 1152.26 1159.42 1132.76 1161.28 1160.14 1139.92 1158.13 1150.85 1154.11 1145.43 1144.07 1152.37 1177.85 1149.96 1157.68 1146.40 1143.65 1159.10
1686.14 1676.72 1694.64 1690.60 1682.45 1715.81 1703.70 1694.64 1729.61 1733.39 1758.95 1757.78 1744.93 1771.78 1767.01 1749.16 1757.85 1773.43 1743.74 1739.91 1790.69 1759.71 1728.64 1734.23 1735.91 1713.88 1737.44 1715.37 1733.79 1729.65 1704.88 1709.59 1734.06 1677.07 1710.04 1692.18 1666.49 1653.88 1646.70 1630.38 1634.53 1605.68 1623.76 1591.65 1599.00 1572.71 1581.36 1584.50 1568.29 1566.32 1562.03 1570.70 1551.41 1552.15 1555.42 1539.14 1554.85 1529.40 1513.17 1511.73 1504.80 1492.60 1478.52 1470.37 1470.35 1495.90 1478.60 1465.96 1475.43 1468.90 1462.39 1452.27 1458.62 1451.69 1424.26 1456.91 1399.47 1419.58 1396.02 1393.28 1386.93 1369.48 1343.60 1347.13 1336.83 1351.40 1339.91 1344.67 1346.33 1347.66 1348.22 1350.31 1331.75 1336.46 1341.34 1346.82 1328.62 1329.78 1315.65 1321.38 1327.65 1326.57 1306.58 1327.58 1329.63 1327.43 1369.16 1375.74 1383.71 1395.17 1395.89 1408.28 1415.43 1434.43 1450.83 1433.05 1419.26 1430.37 1440.59 1395.07 1443.83 1416.24 1421.67 1420.34 1438.69 1424.03 1414.57 1419.88 1414.44 1414.46 1421.02 1399.87 1409.05 1416.52 1408.99 1385.62 1378.98 1369.90 1359.93 1361.23 1343.56 1326.39 1306.50 1328.40 1313.76 1305.75 1285.53 1307.45 1301.72 1312.37 1303.88 1296.62 1290.94 1307.52 1260.39 1256.07 1296.67 1278.75 1264.41 1237.51 1258.69 1273.77 1226.67 1221.75 1216.49 1207.91 1216.73 1186.98 1202.43 1203.99 1181.86 1189.67 1187.23 1169.67 1141.63 1137.93 1173.56 1127.86 1162.54 1089.61 1078.56 1057.33 1056.59 1030.51 1052.54 1041.81 1048.42 1034.84 1022.86 1022.87 1039.34 995.18 1020.53 1022.25 1007.67 1019.52 1002.34 992.94 956.91 984.28 992.24 971.43 968.18 994.67 963.39 968.63 987.58 990.45 1015.86 1025.43 1033.40 1024.83 1038.90 1039.53 1019.54 1039.37 1019.83 1040.11 1026.79 1018.21 1023.49 1022.03 1001.83 1017.73 1006.66 1037.73 1032.62 1022.82 1009.97 1040.58 1007.59 1022.62 1016.88 1005.85 1004.12 1034.76 990.12 998.79 958.84 946.68 929.91 951.69 932.13 935.41 931.04 919.74 922.21 926.20 914.28 930.29 925.33 911.71 919.17 934.41 917.52 916.20 905.89 892.89 922.30 877.83 906.00 884.07 866.43 879.04 874.99 882.06 883.92 884.03 868.26 864.25 863.80 889.47 890.96 873.38 864.33 883.53 846.98 816.09 845.25 835.07 827.42 797.45 818.58 812.32 801.55 806.01 819.24 827.22 831.86 833.07 814.98 842.86 828.22 840.90 839.20 850.59 834.77 838.35 842.63 864.34 883.56 857.13 854.46 901.83 908.35 912.91 932.18 943.98 962.66 968.68 992.33 995.50 1017.68 1055.09 1052.69 1069.57 1065.10 1090.77 1094.51 1078.54 1083.78 1090.76 1100.92 1115.25 1126.93 1112.03 1134.51 1113.53 1129.38 1142.87 1139.82 1147.03 1177.36 1177.92 1164.35 1169.64 1166.11 1150.22 1164.03 1136.92 1150.19 1158.06 1118.25 1132.06 1145.21 1150.77 1139.42 1160.91 1158.46 1160.94 1186.14 1163.46 1198.66 1189.96 1206.15 1190.13 1188.28 1204.08 1173.66 1170.87 1170.12 1174.78 1168.67 1186.31 1182.06 1174.15 1173.17 1184.84 1181.11 1205.23 1217.22 1199.47 1209.41 1217.70 1188.73 1209.37 1188.14 1176.23 1168.47 1173.75 1176.99 1161.63 1140.18 1134.93 1151.14 1125.86 1121.19 1143.33 1133.97 1159.15 1139.83 1137.82 1146.17 1173.67 1144.83 1130.17 1134.13 1134.49 1124.41 1123.45
1667.54 1676.45 1664.26 1662.11 1681.98 1674.08 1691.09 1707.89 1723.53 1708.39 1720.55 1741.38 1734.75 1739.59 1755.17 1768.53 1751.11 1751.93 1742.04 1738.11 1734.31 1725.24 1730.68 1718.59 1727.68 1730.75 1738.21 1707.12 1702.09 1710.06 1704.67 1695.47 1710.58 1672.19 1658.98 1689.14 1661.42 1652.26 1644.73 1635.01 1602.75 1599.51 1563.70 1570.31 1573.64 1579.94 1572.79 1580.64 1550.71 1583.81 1542.12 1539.59 1553.28 1524.06 1550.71 1521.48 1540.31 1523.29 1507.16 1481.86 1483.95 1481.40 1463.58 1480.99 1465.62 1461.73 1456.26 1448.53 1460.41 1458.86 1445.63 1461.27 1451.15 1435.28 1430.92 1421.98 1404.41 1397.27 1389.49 1365.36 1368.52 1366.27 1328.19 1347.36 1364.86 1327.60 1328.22 1325.51 1306.85 1332.52 1332.54 1334.91 1316.55 1327.72 1347.05 1325.80 1328.09 1300.92 1296.94 1311.35 1309.44 1313.75 1317.65 1324.81 1276.29 1356.14 1336.88 1363.33 1368.99 1395.39 1372.92 1378.26 1402.02 1413.66 1429.25 1404.42 1410.78 1435.25 1406.93 1413.46 1392.44 1412.77 1392.75 1418.84 1402.89 1408.68 1411.78 1400.59 1411.29 1379.43 1425.28 1397.83 1382.69 1366.40 1389.05 1377.60 1371.83 1366.68 1357.58 1340.77 1309.43 1310.31 1327.98 1313.12 1290.32 1314.43 1315.07 1271.05 1279.27 1274.16 1292.69 1270.23 1290.23 1309.82 1255.51 1260.82 1269.98 1238.88 1249.07 1223.92 1234.44 1216.02 1206.72 1213.40 1224.04 1190.49 1195.50 1196.06 1197.51 1177.17 1220.41 1184.45 1156.97 1155.79 1147.11 1132.40 1133.48 1106.43 1117.28 1106.64 1076.78 1064.58 1053.49 1035.91 1055.91 1049.37 1031.71 999.19 1015.45 1042.62 1010.04 1010.96 1010.22 1017.53 1000.70 999.28 978.99 985.51 981.15 990.90 979.91 951.63 959.85 954.30 966.96 960.52 986.93 1006.16 992.44 1010.46 1021.47 1022.23 1013.58 1026.15 1038.14 1017.41 996.83 1013.60 1037.27 1006.38 1021.07 1024.27 1008.82 1007.09 1009.48 1018.99 999.33 1008.42 1029.98 1017.51 996.02 990.00 1006.14 1004.93 998.35 1008.43 986.97 973.93 982.36 949.73 944.69 938.23 926.06 906.80 925.00 890.20 899.57 923.02 921.05 903.72 911.08 929.92 896.92 914.82 907.10 905.50 896.62 902.66 889.05 884.84 890.37 876.17 884.26 849.78 881.64 848.39 877.97 870.61 893.97 899.13 896.45 852.91 868.79 866.70 855.33 876.36 832.69 842.21 833.75 824.10 820.53 805.61 797.08 807.42 793.88 800.47 804.75 823.26 830.09 830.27 818.02 819.49 819.69 817.57 833.45 809.02 829.97 845.51 841.10 819.19 852.05 852.12 871.12 875.55 903.19 888.11 925.33 923.23 947.49 958.91 980.32 992.79 1006.33 1009.97 1037.34 1034.41 1062.12 1066.71 1080.60 1082.42 1080.01 1108.75 1088.70 1093.50 1089.43 1106.16 1131.20 1129.80 1134.87 1119.31 1105.42 1134.42 1148.04 1186.05 1172.78 1138.63 1145.94 1146.07 1153.99 1153.09 1121.90 1141.36 1143.82 1132.82 1133.48 1129.03 1139.58 1139.49 1154.93 1163.92 1190.23 1181.40 1186.25 1173.62 1218.27 1192.14 1175.63 1174.63 1178.15 1171.36 1195.01 1173.65 1201.43 1164.86 1175.28 1186.05 1164.93 1164.91 1183.75 1197.29 1222.94 1207.62 1198.79 1185.74 1169.79 1201.86 1183.76 1167.27 1144.13 1167.18 1150.59 1119.04 1127.23 1116.03 1120.64 1105.69 1105.28 1125.90 1139.63 1130.08 1153.39 1120.15 1121.30 1134.17 1128.01 1114.24 1110.61 1125.22 1128.62 1125.58
1670.19 1637.48 1663.42 1668.06 1673.71 1668.06 1686.12 1682.66 1695.90 1707.22 1705.74 1727.79 1711.21 1726.57 1759.09 1754.58 1735.37 1748.25 1739.89 1724.23 1746.08 1719.87 1715.91 1716.51 1729.64 1715.16 1722.79 1699.93 1698.60 1706.68 1695.90 1722.89 1691.22 1702.08 1680.64 1667.40 1661.14 1637.99 1612.35 1630.52 1597.71 1585.50 1564.89 1582.90 1549.17 1560.02 1541.20 1543.76 1535.84 1544.72 1528.99 1532.74 1528.06 1524.69 1517.55 1531.32 1513.81 1479.57 1485.24 1494.82 1488.44 1482.32 1452.34 1460.99 1448.17 1467.04 1446.82 1445.25 1423.71 1439.49 1439.72 1452.27 1445.79 1428.32 1403.17 1426.94 1399.11 1370.64 1368.18 1347.08 1339.40 1341.70 1332.79 1327.08 1306.36 1331.22 1349.41 1312.17 1316.70 1331.44 1317.82 1310.36 1324.68 1337.69 1303.68 1314.61 1317.08 1328.15 1309.93 1311.78 1308.13 1298.05 1315.35 1303.11 1303.46 1346.85 1337.52 1363.52 1354.20 1376.27 1353.87 1387.23 1383.59 1410.15 1404.90 1420.95 1389.42 1405.85 1397.76 1400.34 1404.19 1381.88 1390.54 1410.46 1400.59 1381.00 1390.66 1398.50 1416.64 1400.23 1391.42 1386.01 1399.88 1385.73 1387.39 1363.27 1375.88 1339.81 1332.08 1335.07 1328.44 1311.91 1295.59 1294.93 1300.12 1275.56 1250.72 1264.42 1264.14 1278.87 1271.14 1267.56 1255.30 1266.80 1250.96 1242.46 1226.64 1242.61 1228.67 1221.76 1198.66 1207.32 1188.68 1196.52 1192.43 1176.53 1171.59 1191.80 1200.56 1156.99 1180.77 1164.20 1162.09 1169.29 1179.95 1143.27 1145.27 1088.87 1087.88 1082.39 1059.05 1042.89 1034.93 1043.67 1014.54 997.06 1000.07 992.43 986.34 1006.33 981.26 987.53 990.58 985.08 976.54 969.97 954.01 984.38 951.93 962.41 925.05 939.69 954.23 933.80 972.79 959.64 980.53 968.77 966.86 1007.26 977.73 1008.81 1014.61 1018.02 1014.44 1013.91 1013.28 998.94 1009.64 1003.96 987.64 997.96 1002.29 997.18 1013.28 988.89 983.24 984.73 990.11 1003.04 996.44 987.74 996.90 971.15 1005.31 972.30 981.41 962.42 936.52 942.71 926.37 900.89 898.57 906.88 906.72 894.84 890.33 919.89 906.11 909.01 904.59 912.30 920.13 898.49 895.28 900.93 896.62 866.08 872.80 874.74 885.23 869.36 878.88 831.13 838.80 844.36 857.99 876.49 855.29 851.12 845.99 875.76 883.54 849.36 841.96 847.21 849.14 833.29 814.64 811.97 786.17 807.45 801.23 774.44 784.10 771.70 789.96 773.80 792.93 817.80 829.13 797.59 824.52 812.38 830.16 835.00 832.72 821.41 834.01 832.43 816.72 841.94 854.74 866.51 880.09 905.23 898.01 921.09 917.96 959.25 977.10 1003.13 995.87 1025.01 1047.55 1032.52 1047.77 1052.87 1050.26 1058.56 1052.59 1080.41 1080.48 1102.14 1087.90 1087.71 1076.04 1108.82 1145.21 1136.82 1132.23 1133.28 1150.23 1143.66 1158.58 1143.66 1138.80 1114.35 1124.88 1136.50 1148.37 1118.07 1119.84 1130.96 1131.42 1135.17 1133.07 1137.79 1161.51 1173.46 1158.41 1155.10 1187.54 1179.85 1159.86 1160.26 1188.84 1163.23 1148.23 1184.54 1173.46 1181.39 1170.22 1145.14 1162.58 1173.70 1161.16 1158.69 1173.16 1193.33 1190.77 1191.00 1164.15 1162.95 1150.58 1181.53 1194.23 1159.80 1151.55 1121.11 1136.32 1123.81 1141.06 1110.70 1117.26 1101.48 1131.08 1128.17 1114.84 1103.96 1125.76 1123.77 1140.22 1095.83 1108.12 1126.76 1134.20 1124.73 1123.62 1113.31
1655.64 1653.53 1646.11 1641.57 1663.69 1655.76 1692.35 1701.34 1683.63 1708.63 1697.63 1718.24 1728.64 1722.30 1740.88 1734.52 1729.63 1738.54 1736.63 1732.64 1715.92 1716.97 1709.06 1688.87 1707.31 1679.39 1690.74 1703.24 1691.55 1695.93 1707.06 1690.64 1680.42 1671.33 1678.11 1674.44 1645.82 1613.01 1617.60 1600.27 1562.90 1579.49 1571.31 1562.95 1547.05 1553.43 1534.19 1534.59 1523.53 1521.74 1516.03 1532.93 1538.08 1510.73 1536.20 1519.40 1489.14 1509.45 1487.25 1449.02 1475.46 1451.82 1434.37 1446.10 1421.01 1446.48 1435.87 1443.99 1424.82 1447.50 1431.92 1422.15 1421.91 1419.09 1420.06 1400.62 1386.42 1379.63 1372.22 1359.59 1355.92 1315.50 1313.59 1316.08 1324.84 1304.58 1303.29 1317.26 1333.31 1321.42 1273.04 1281.39 1314.45 1316.85 1268.13 1288.60 1308.50 1313.57 1287.80 1295.33 1284.68 1291.77 1300.64 1284.58 1301.08 1315.44 1308.80 1330.04 1354.37 1373.78 1367.34 1366.77 1371.47 1363.78 1392.35 1415.22 1398.11 1405.38 1386.20 1389.02 1377.27 1418.32 1373.83 1399.36 1370.43 1370.59 1354.59 1370.41 1381.61 1393.18 1395.22 1362.24 1388.95 1367.34 1366.69 1356.81 1348.94 1338.78 1288.14 1330.84 1295.48 1274.05 1294.31 1274.60 1252.19 1261.51 1265.62 1273.27 1261.38 1244.54 1278.94 1242.15 1240.19 1272.64 1276.89 1261.97 1232.59 1236.34 1218.40 1226.58 1236.24 1181.04 1180.13 1189.33 1180.18 1162.13 1163.00 1172.86 1169.81 1150.04 1172.69 1139.49 1141.42 1139.22 1131.29 1100.67 1097.37 1096.01 1089.11 1056.11 1042.96 1063.34 1002.15 1003.02 1017.07 986.96 1001.38 992.65 996.34 1000.41 977.45 989.54 976.79 984.99 965.60 972.45 961.13 947.42 969.38 941.33 926.48 941.83 935.23 936.43 942.13 936.79 944.61 938.21 955.27 985.87 979.51 992.11 997.10 1001.81 996.25 992.86 1011.97 1003.87 1009.82 976.82 1007.91 993.77 975.98 975.66 986.68 988.52 970.86 984.49 994.66 972.92 1005.25 997.47 975.50 979.05 970.63 968.73 975.26 935.82 928.74 917.22 932.74 921.11 901.54 909.28 912.65 908.56 892.92 898.10 902.49 900.93 902.32 881.17 896.18 893.50 909.99 879.35 886.74 848.19 864.68 864.05 854.49 857.21 852.98 828.23 845.20 846.64 848.44 838.98 860.71 854.05 856.44 836.94 844.49 850.11 835.98 840.86 818.90 803.72 780.79 806.78 781.66 793.90 797.23 768.95 779.43 767.62 764.63 772.94 789.79 820.16 793.63 814.93 797.04 827.16 823.59 792.64 836.02 821.36 824.51 854.64 828.61 832.29 839.45 846.65 883.16 885.80 874.71 904.12 919.44 973.10 954.27 981.53 977.16 1009.82 1022.35 1023.31 1039.40 1037.09 1047.18 1051.45 1043.87 1086.39 1058.11 1066.22 1066.01 1096.38 1093.99 1086.66 1100.98 1109.36 1135.69 1145.46 1128.38 1142.38 1132.59 1139.23 1141.75 1132.66 1115.38 1126.35 1107.18 1104.77 1125.29 1109.58 1089.26 1120.46 1126.88 1118.29 1134.23 1140.64 1157.67 1153.01 1146.36 1150.46 1170.22 1148.68 1162.74 1166.47 1149.68 1159.53 1180.68 1143.65 1136.70 1157.26 1166.11 1146.06 1175.33 1170.21 1166.12 1166.98 1171.81 1169.12 1170.81 1172.49 1161.65 1178.57 1175.94 1144.51 1141.60 1131.84 1121.49 1088.87 1136.95 1114.25 1104.24 1097.38 1083.85 1114.03 1123.29 1114.07 1120.64 1119.83 1110.19 1105.37 1141.41 1115.83 1090.59 1104.87 1092.17 1112.47
1654.67 1645.19 1640.58 1638.26 1640.89 1663.97 1659.59 1656.73 1677.31 1708.86 1707.01 1696.35 1713.04 1746.27 1714.84 1717.17 1735.51 1723.20 1738.58 1700.46 1687.65 1691.52 1714.14 1675.33 1700.33 1709.26 1717.39 1689.55 1669.77 1684.86 1687.04 1660.03 1660.72 1667.93 1668.66 1658.08 1625.86 1616.07 1605.80 1582.91 1581.92 1561.31 1568.86 1558.80 1545.33 1549.76 1546.36 1525.40 1539.19 1528.39 1502.05 1520.39 1502.50 1491.62 1507.37 1493.55 1476.20 1475.04 1473.90 1450.14 1456.64 1467.38 1446.89 1430.38 1418.23 1416.68 1449.70 1419.01 1425.91 1419.06 1419.97 1409.29 1394.26 1406.81 1397.64 1396.13 1380.99 1362.51 1355.36 1347.24 1336.31 1310.42 1309.55 1309.63 1316.36 1292.71 1310.67 1292.07 1303.53 1287.04 1287.17 1299.85 1291.39 1271.06 1306.71 1282.78 1293.03 1285.77 1293.89 1303.57 1281.48 1295.75 1287.20 1276.18 1287.10 1302.00 1286.14 1311.83 1335.70 1336.43 1359.53 1378.67 1369.00 1358.90 1381.20 1376.51 1387.85 1364.99 1364.64 1384.91 1358.71 1359.58 1374.06 1364.52 1365.93 1378.26 1367.34 1375.94 1372.23 1361.35 1381.52 1363.39 1372.97 1362.18 1347.45 1352.59 1336.88 1323.78 1323.92 1304.25 1292.87 1281.76 1265.17 1253.45 1253.46 1247.51 1275.94 1245.67 1243.73 1252.29 1253.86 1267.96 1234.53 1234.29 1222.63 1233.14 1227.28 1226.08 1210.02 1185.85 1192.65 1189.59 1172.73 1164.76 1164.20 1154.16 1164.53 1156.54 1162.99 1151.87 1147.09 1146.45 1146.88 1130.36 1127.96 1108.50 1109.31 1077.04 1051.86 1048.67 1028.77 1027.03 1035.42 1001.29 1002.35 978.34 989.60 981.00 974.94 992.02 982.51 971.46 948.52 952.14 953.87 941.36 960.00 933.82 905.52 900.56 929.41 947.23 927.80 919.18 932.55 941.83 958.52 947.69 959.90 967.28 967.29 977.94 980.66 979.73 998.10 1005.68 993.27 974.94 989.06 981.40 993.98 996.61 966.38 968.79 974.26 947.46 960.05 979.88 964.59 983.65 986.16 966.26 1005.81 960.79 964.94 942.25 932.92 965.68 938.31 921.21 925.74 907.24 870.24 883.71 873.76 876.65 882.70 873.78 883.84 867.90 891.27 871.88 885.96 872.52 868.26 868.08 875.10 868.35 877.69 839.81 842.84 867.17 811.99 821.20 858.66 825.55 851.14 828.74 835.54 831.96 851.68 811.48 828.46 849.71 835.13 799.34 808.50 835.54 807.11 809.77 797.63 765.82 770.63 783.48 781.54 770.97 757.60 778.77 793.50 796.67 785.47 791.22 806.03 811.39 794.44 826.93 803.21 794.80 806.56 811.94 837.34 828.27 831.10 855.10 868.57 874.84 875.86 899.90 918.48 936.39 948.36 971.18 989.29 1023.44 1000.70 1041.14 1033.17 1011.72 1033.20 1049.80 1064.34 1055.35 1060.53 1071.40 1079.08 1083.24 1095.46 1105.76 1109.60 1109.54 1110.66 1125.79 1123.19 1131.42 1147.99 1149.73 1129.24 1122.40 1126.53 1110.14 1109.28 1097.48 1103.04 1113.09 1115.96 1109.02 1109.53 1131.30 1128.37 1106.91 1157.77 1157.38 1163.18 1168.10 1133.89 1170.96 1172.89 1161.84 1158.42 1148.94 1131.24 1154.69 1136.41 1139.41 1156.76 1146.16 1149.89 1160.59 1159.98 1162.71 1165.59 1169.29 1183.26 1169.80 1166.96 1169.23 1151.92 1150.68 1133.46 1133.38 1113.32 1120.08 1108.44 1099.67 1094.19 1093.65 1085.96 1098.55 1092.79 1081.39 1095.75 1095.07 1087.19 1100.05 1104.74 1097.43 1089.65 1103.26 1098.43 1117.19
1611.06 1623.36 1612.47 1628.40 1643.68 1642.82 1625.24 1677.74 1645.03 1681.39 1688.75 1697.72 1700.51 1726.60 1704.11 1708.15 1703.83 1719.34 1697.65 1711.93 1695.49 1710.25 1697.26 1673.77 1688.54 1669.33 1657.32 1686.06 1679.40 1675.97 1695.66 1659.57 1674.70 1652.24 1662.72 1634.91 1622.53 1620.71 1571.45 1576.34 1580.41 1567.31 1532.53 1552.73 1521.11 1521.11 1525.24 1515.52 1518.41 1507.99 1497.36 1522.89 1511.52 1520.20 1483.00 1495.94 1457.13 1489.25 1469.98 1447.86 1426.11 1450.28 1437.12 1429.19 1422.41 1409.34 1407.84 1414.25 1398.50 1421.28 1425.85 1400.27 1394.60 1412.02 1385.04 1377.33 1369.17 1364.96 1362.23 1340.74 1319.46 1321.47 1292.43 1284.20 1307.31 1284.30 1282.91 1303.05 1275.17 1295.56 1276.38 1290.07 1307.35 1269.63 1294.92 1275.69 1278.45 1290.38 1269.62 1290.20 1294.06 1273.78 1274.24 1285.96 1280.75 1301.59 1297.68 1334.34 1331.30 1319.99 1348.24 1360.31 1361.92 1375.97 1376.77 1362.48 1354.17 1366.24 1389.93 1350.63 1357.45 1361.18 1344.22 1361.31 1329.09 1363.00 1368.81 1359.93 1356.30 1357.79 1371.53 1339.61 1349.32 1347.86 1374.32 1347.20 1304.80 1313.87 1306.84 1286.40 1274.44 1282.13 1251.65 1261.24 1242.89 1239.14 1243.41 1219.13 1245.31 1229.91 1227.23 1243.06 1221.56 1248.69 1230.06 1215.62 1235.79 1207.77 1194.14 1194.27 1169.71 1168.47 1168.20 1165.56 1152.21 1149.40 1151.86 1153.00 1157.54 1135.48 1132.62 1115.35 1146.39 1121.03 1125.75 1092.56 1087.64 1077.72 1060.34 1054.39 1045.60 1008.81 1011.90 995.76 982.69 990.83 968.28 973.76 963.75 958.26 955.46 957.71 945.99 963.34 952.54 925.35 945.14 922.79 933.25 922.99 911.69 928.90 914.01 912.95 914.15 918.22 928.32 949.15 980.43 958.18 958.95 968.99 969.50 979.32 972.60 1000.63 976.58 963.38 958.01 998.43 992.18 972.75 958.53 959.06 958.03 969.36 959.20 963.42 965.21 969.86 955.43 962.59 973.96 957.69 953.49 939.20 942.54 940.01 922.82 913.82 892.78 871.89 875.63 894.18 865.50 873.92 880.49 872.17 869.78 868.02 874.22 855.26 865.96 871.32 863.98 857.76 862.54 881.38 851.31 833.55 846.62 835.66 807.48 834.16 821.77 813.57 818.81 815.92 825.73 849.69 815.71 834.39 850.65 826.62 811.79 806.57 796.89 812.43 789.14 780.00 758.67 783.14 761.06 767.12 765.60 772.31 773.98 778.50 775.10 777.32 777.02 792.68 784.40 784.12 799.59 808.72 816.22 807.84 824.48 811.88 812.80 801.13 823.19 850.60 864.82 871.95 904.51 914.35 913.32 925.46 924.73 976.77 953.29 1007.20 1021.16 1026.38 1030.09 1020.24 1014.27 1053.70 1043.65 1046.28 1058.69 1063.64 1061.67 1074.81 1074.63 1080.30 1090.70 1115.60 1126.08 1116.58 1107.15 1129.25 1124.41 1125.11 1161.18 1135.12 1111.37 1114.13 1111.69 1104.51 1123.15 1119.82 1100.22 1105.49 1105.85 1109.86 1116.70 1139.00 1119.28 1155.11 1139.19 1141.17 1152.13 1140.43 1138.42 1133.97 1136.66 1137.46 1107.67 1127.86 1149.57 1128.30 1139.46 1139.46 1130.50 1129.67 1168.77 1162.36 1136.35 1156.45 1182.19 1149.87 1162.52 1146.61 1152.53 1144.30 1124.19 1120.85 1089.75 1124.77 1102.58 1093.14 1092.03 1090.81 1083.72 1102.73 1074.13 1102.21 1095.03 1082.66 1085.19 1089.60 1089.33 1069.37 1111.61 1096.08 1109.92 1083.83
1625.80 1630.21 1616.52 1638.37 1618.01 1640.88 1628.49 1646.57 1685.34 1670.13 1671.97 1720.77 1688.33 1696.41 1713.32 1687.48 1701.59 1708.16 1716.67 1693.61 1684.03 1704.02 1687.98 1693.83 1674.54 1681.72 1682.11 1666.27 1658.15 1654.24 1661.59 1637.81 1652.68 1644.87 1642.32 1622.01 1615.68 1603.14 1597.95 1562.13 1580.33 1571.20 1556.43 1536.35 1514.51 1529.35 1496.23 1506.87 1492.71 1500.49 1503.41 1492.87 1516.73 1505.98 1466.62 1479.32 1451.13 1476.57 1463.70 1471.49 1445.23 1449.14 1431.58 1404.45 1405.79 1410.47 1422.69 1393.63 1400.65 1405.13 1426.40 1372.56 1404.74 1411.81 1404.56 1362.55 1362.75 1353.37 1339.13 1334.91 1331.09 1291.07 1286.53 1277.05 1280.88 1272.53 1272.60 1281.31 1305.24 1259.37 1283.19 1276.07 1275.16 1291.27 1288.28 1274.89 1264.05 1268.16 1256.28 1260.77 1278.71 1258.41 1267.40 1278.34 1271.31 1292.78 1313.17 1318.25 1325.16 1317.05 1321.19 1360.56 1346.24 1342.17 1381.32 1344.16 1370.06 1350.22 1329.80 1351.10 1356.46 1368.97 1336.58 1338.94 1334.65 1364.92 1348.84 1361.15 1343.96 1359.89 1361.95 1360.47 1337.08 1334.60 1338.21 1346.45 1325.26 1302.96 1299.28 1274.18 1284.98 1246.39 1271.19 1272.35 1246.64 1246.65 1233.91 1227.09 1235.75 1221.89 1228.74 1231.41 1232.65 1234.97 1208.44 1225.48 1210.47 1206.04 1205.30 1196.46 1184.95 1165.30 1178.08 1155.05 1170.16 1151.21 1146.63 1144.85 1144.06 1138.09 1123.46 1102.86 1098.80 1102.67 1104.08 1093.59 1061.76 1066.48 1029.96 1039.27 1017.98 1003.13 987.82 980.40 996.79 957.41 946.22 963.04 977.35 954.40 950.11 949.59 962.52 970.51 930.98 923.51 931.73 937.72 914.39 899.52 903.83 912.43 918.07 886.60 901.86 905.33 918.34 925.16 946.66 924.17 945.69 963.82 975.86 1000.72 990.17 964.97 963.28 972.39 982.54 960.53 951.03 956.81 958.93 970.73 962.65 957.93 969.53 981.99 952.00 954.48 942.71 951.61 957.46 942.91 940.00 937.83 910.04 921.32 894.52 917.05 893.50 881.06 882.60 891.01 868.24 877.39 856.99 857.19 867.79 862.87 872.28 868.05 868.71 848.23 873.05 844.16 865.43 843.61 845.26 834.44 826.04 821.19 818.59 824.85 818.63 829.75 845.18 808.62 812.50 841.05 827.14 819.22 834.82 808.08 829.10 812.57 815.79 802.13 790.24 772.66 785.66 748.89 761.29 770.80 764.74 746.71 773.96 762.62 788.65 796.32 783.91 797.92 774.58 802.56 790.51 798.89 797.40 791.94 819.63 793.49 815.99 823.62 807.41 827.76 859.73 884.65 883.57 906.81 914.13 932.23 936.35 951.56 976.89 977.34 1012.26 1014.38 1003.55 1001.67 1039.38 1021.99 1019.55 1023.59 1047.90 1063.88 1062.00 1070.83 1075.44 1089.22 1071.65 1093.65 1120.11 1114.69 1117.80 1113.57 1123.57 1098.37 1125.76 1119.91 1123.10 1123.33 1113.36 1093.77 1088.18 1098.90 1114.60 1101.17 1112.99 1113.31 1122.91 1117.85 1133.43 1127.40 1149.10 1160.53 1159.55 1150.29 1125.70 1124.47 1141.13 1135.90 1134.43 1149.83 1146.99 1112.77 1151.24 1128.19 1152.06 1154.79 1164.04 1162.31 1141.69 1180.07 1174.32 1138.29 1137.77 1142.64 1148.53 1136.85 1132.59 1102.57 1081.30 1104.82 1086.60 1079.47 1089.53 1064.02 1083.66 1108.92 1090.68 1070.90 1095.40 1093.01 1079.69 1090.06 1090.63 1089.70 1094.18 1055.56 1072.29 1083.96
1621.51 1598.32 1621.04 1652.61 1641.57 1622.87 1645.53 1660.11 1660.46 1666.89 1673.50 1679.19 1668.47 1694.54 1712.09 1688.07 1699.08 1702.16 1693.59 1705.26 1682.83 1692.66 1676.07 1680.25 1671.33 1697.51 1657.82 1662.74 1648.98 1672.81 1668.86 1660.29 1650.45 1655.93 1620.97 1659.67 1616.16 1604.91 1574.94 1561.65 1556.45 1542.51 1532.88 1516.02 1518.56 1501.16 1516.42 1510.30 1502.79 1497.80 1515.66 1479.63 1501.31 1490.00 1501.38 1492.21 1456.92 1459.76 1437.97 1434.89 1435.45 1438.23 1423.47 1422.55 1428.19 1421.70 1401.36 1388.32 1392.30 1396.15 1385.64 1396.75 1400.69 1391.90 1385.80 1362.33 1356.66 1346.29 1355.08 1310.94 1298.91 1294.60 1299.56 1273.63 1297.29 1280.18 1282.02 1271.91 1266.01 1263.97 1288.86 1246.49 1260.86 1278.44 1278.14 1273.75 1256.34 1258.46 1254.83 1249.53 1268.76 1287.18 1259.41 1275.67 1297.64 1278.88 1284.79 1288.28 1314.58 1349.02 1340.27 1340.28 1345.41 1354.08 1370.98 1350.92 1343.60 1360.73 1368.73 1352.43 1342.25 1343.35 1346.86 1338.41 1361.52 1355.24 1353.16 1347.53 1355.25 1327.58 1356.69 1326.63 1349.09 1339.37 1336.42 1328.36 1305.33 1301.92 1272.63 1282.99 1280.48 1255.28 1235.54 1217.46 1247.36 1231.43 1226.65 1242.88 1227.41 1239.71 1227.29 1220.08 1241.77 1230.60 1228.48 1212.69 1167.37 1185.67 1194.31 1188.09 1172.36 1167.87 1160.02 1139.76 1155.34 1156.92 1132.38 1136.51 1133.99 1135.76 1136.52 1112.72 1103.65 1112.89 1103.32 1095.83 1074.75 1050.32 1061.85 1024.22 1046.94 1005.76 986.49 969.29 980.93 973.34 961.99 945.63 950.34 939.43 933.91 956.82 954.58 935.50 909.75 907.46 950.37 924.57 920.20 909.72 890.53 887.88 911.50 901.94 900.58 904.89 923.89 916.76 926.72 946.23 952.52 943.24 973.67 977.78 972.99 967.70 975.63 945.51 964.45 958.68 935.14 932.85 955.92 953.83 946.00 957.52 935.29 933.88 958.38 954.44 937.83 963.56 945.54 955.31 938.89 931.20 912.06 926.01 911.92 890.57 913.31 891.36 864.73 874.99 848.93 846.47 859.41 866.88 843.57 860.36 872.85 878.62 876.19 852.32 841.78 854.64 844.09 845.87 856.65 819.19 834.23 831.02 810.90 816.70 826.32 816.87 838.38 849.77 825.66 808.32 822.45 816.01 805.13 826.50 809.54 804.95 784.59 786.32 788.36 776.57 770.07 749.94 739.24 764.71 766.30 739.75 752.86 738.09 781.32 762.55 763.04 774.31 793.78 769.40 788.63 785.27 787.54 802.79 819.44 795.57 821.04 811.02 819.90 832.34 843.62 846.97 874.82 909.23 904.64 950.07 933.00 970.91 971.31 981.81 1002.32 1008.70 1007.23 1010.50 1040.65 1024.21 1014.92 1036.74 1067.80 1038.14 1046.38 1072.85 1069.38 1070.86 1084.37 1110.08 1105.86 1111.42 1122.11 1102.18 1106.05 1112.83 1116.30 1100.83 1117.83 1103.98 1102.11 1092.54 1089.88 1080.62 1108.49 1084.50 1091.30 1099.42 1110.38 1139.43 1112.58 1132.98 1146.09 1130.05 1149.44 1135.23 1147.76 1143.13 1117.02 1159.29 1145.10 1139.19 1161.88 1126.66 1135.22 1123.74 1137.79 1157.68 1164.10 1152.39 1144.80 1157.22 1166.92 1147.87 1158.78 1145.54 1138.25 1107.07 1127.07 1109.40 1116.31 1100.53 1096.18 1084.66 1080.26 1080.84 1049.65 1072.11 1077.19 1067.81 1077.04 1094.79 1079.28 1074.87 1080.72 1087.29 1080.90 1088.17 1079.52 1068.32
1610.31 1623.02 1607.11 1605.92 1609.04 1630.17 1647.87 1637.71 1682.40 1669.76 1673.18 1686.96 1688.81 1693.48 1696.65 1725.78 1699.77 1689.54 1685.53 1698.90 1681.63 1690.98 1688.62 1666.31 1666.25 1673.73 1664.18 1657.10 1650.48 1671.12 1653.00 1666.12 1644.98 1648.09 1657.48 1634.68 1613.61 1583.04 1617.33 1603.53 1548.85 1537.91 1555.26 1524.57 1506.42 1498.34 1529.17 1493.30 1524.55 1506.43 1489.61 1540.20 1488.35 1484.21 1493.58 1456.72 1462.06 1476.72 1470.37 1457.09 1449.76 1430.35 1410.78 1412.80 1422.09 1416.57 1440.99 1404.45 1411.80 1382.18 1377.38 1402.13 1387.22 1372.25 1368.53 1360.90 1346.99 1339.61 1313.63 1317.83 1281.63 1304.06 1298.82 1292.61 1288.49 1266.39 1287.54 1261.42 1280.67 1275.36 1275.88 1276.05 1268.79 1270.01 1279.40 1272.37 1290.93 1252.55 1237.48 1257.36 1253.92 1245.97 1264.58 1243.40 1268.50 1271.23 1291.68 1290.06 1301.18 1317.65 1317.31 1349.62 1345.43 1344.31 1359.06 1360.63 1363.89 1353.60 1359.84 1324.73 1343.46 1335.20 1365.45 1355.71 1335.28 1342.15 1354.13 1322.59 1351.18 1343.14 1337.94 1329.76 1332.07 1326.35 1328.50 1351.32 1317.91 1297.91 1287.81 1268.10 1278.95 1254.43 1249.07 1258.33 1230.03 1237.17 1211.81 1220.05 1213.45 1218.88 1232.70 1239.69 1211.96 1220.64 1195.81 1198.42 1192.59 1172.76 1176.19 1174.41 1171.01 1158.54 1155.98 1175.42 1145.55 1140.70 1150.43 1122.12 1119.40 1117.94 1115.34 1128.81 1103.42 1108.59 1087.57 1084.60 1080.89 1062.57 1041.86 1026.48 1000.41 1010.54 990.78 1005.81 978.09 974.06 956.50 950.74 943.92 955.18 935.94 928.45 927.93 950.73 933.24 918.39 919.81 904.98 907.52 892.86 892.48 924.84 889.86 912.93 898.17 931.38 911.84 913.46 923.53 923.27 946.89 952.77 948.30 958.96 968.06 937.68 963.06 960.22 961.15 981.54 945.38 952.24 944.94 962.07 960.18 943.14 942.47 943.77 949.73 974.11 957.17 938.97 952.19 958.91 955.37 925.87 930.33 894.56 888.49 876.61 880.61 874.01 882.13 872.12 866.16 851.64 857.40 868.43 846.67 873.63 886.17 847.98 873.70 830.33 845.43 861.16 857.20 852.26 846.98 834.09 820.93 836.94 816.08 806.71 835.27 809.94 800.94 823.16 807.88 827.15 835.91 848.13 807.78 832.49 842.41 807.98 804.18 785.68 783.95 768.91 757.06 769.37 759.72 760.38 745.11 762.50 742.28 776.23 768.00 771.56 768.94 796.99 808.40 794.96 783.64 782.22 778.13 826.00 798.13 802.26 808.27 795.31 819.45 831.54 864.38 859.41 889.45 904.19 879.56 929.62 943.07 966.89 962.38 988.20 995.18 1002.66 1031.65 1014.99 1014.99 1048.71 1034.44 1032.15 1055.08 1054.93 1080.03 1059.38 1075.70 1079.61 1087.23 1107.83 1122.18 1104.94 1120.61 1129.32 1141.98 1127.05 1107.79 1113.75 1100.74 1100.21 1108.64 1088.79 1117.38 1115.40 1094.51 1087.16 1099.43 1124.03 1118.76 1117.63 1126.24 1132.05 1135.05 1157.17 1158.12 1172.31 1138.78 1123.29 1136.05 1134.05 1150.63 1118.19 1149.84 1130.75 1126.31 1135.14 1132.18 1152.42 1138.81 1150.03 1159.18 1153.39 1161.27 1164.04 1162.85 1151.42 1144.76 1121.94 1111.87 1112.74 1125.07 1110.41 1105.69 1074.29 1102.36 1067.46 1085.53 1085.92 1090.04 1097.96 1078.64 1082.02 1079.45 1072.60 1074.81 1080.98 1083.25 1080.45 1069.78 1055.80
1607.74 1639.14 1621.46 1611.87 1615.43 1633.15 1641.22 1644.03 1643.80 1672.00 1677.16 1690.55 1688.54 1696.98 1677.57 1707.75 1707.05 1683.95 1725.64 1700.05 1660.34 1667.20 1688.67 1686.89 1679.72 1667.91 1663.68 1663.57 1658.50 1642.24 1660.04 1668.70 1645.86 1638.32 1620.81 1624.11 1620.31 1606.98 1577.26 1541.72 1562.22 1537.64 1528.43 1525.91 1500.95 1516.53 1524.84 1515.61 1518.47 1501.70 1511.97 1485.00 1489.57 1496.43 1503.40 1492.53 1455.02 1456.12 1461.32 1442.50 1456.34 1433.06 1409.89 1413.38 1402.27 1408.43 1415.25 1393.23 1415.79 1406.95 1385.23 1388.18 1379.18 1374.55 1374.89 1377.67 1353.66 1340.14 1333.93 1312.39 1322.91 1282.92 1304.50 1273.89 1270.13 1278.03 1278.44 1277.73 1296.05 1281.32 1269.47 1260.64 1281.70 1284.39 1265.51 1269.03 1259.93 1244.18 1256.65 1254.68 1256.71 1271.47 1259.48 1259.53 1262.44 1278.19 1272.28 1296.76 1287.05 1305.56 1313.03 1343.68 1350.89 1345.85 1346.11 1368.73 1359.72 1356.65 1345.35 1342.71 1340.56 1347.66 1334.13 1339.63 1335.23 1334.50 1341.19 1338.40 1329.39 1335.45 1339.98 1354.43 1320.44 1328.03 1327.46 1319.46 1301.67 1281.22 1286.14 1266.18 1259.89 1269.97 1233.43 1224.91 1237.34 1233.50 1214.63 1228.68 1234.04 1235.31 1224.54 1196.65 1220.32 1225.08 1205.48 1202.40 1196.94 1194.53 1185.89 1169.29 1161.23 1156.46 1145.28 1153.95 1152.10 1092.82 1129.83 1118.79 1128.06 1138.44 1127.30 1124.36 1114.09 1107.54 1083.71 1101.18 1067.60 1048.11 1049.66 1038.89 989.25 986.45 988.25 960.75 969.20 957.54 959.89 927.68 962.70 958.77 944.47 941.01 945.30 940.31 924.66 925.10 916.88 900.92 925.19 907.58 902.97 883.24 885.31 883.88 906.66 908.66 880.81 924.77 923.60 961.88 940.17 948.80 952.63 969.28 980.50 954.21 963.48 971.03 953.25 962.16 950.42 957.14 946.82 935.90 936.73 941.37 963.02 938.91 950.40 974.22 943.19 944.06 952.30 923.50 941.85 938.83 913.65 906.65 906.57 910.31 895.67 888.62 876.01 835.34 863.63 835.13 863.18 833.62 857.26 859.51 866.74 872.30 879.21 849.83 885.22 866.99 851.45 840.14 841.38 824.71 812.65 818.60 799.60 813.76 824.59 840.11 837.24 825.62 812.41 827.45 813.45 822.43 814.26 807.26 817.50 787.94 805.74 765.17 805.00 766.16 731.36 760.62 760.15 749.70 743.70 749.64 748.89 750.07 760.32 760.87 778.19 777.80 805.76 790.41 774.96 787.14 786.45 809.47 807.91 800.30 800.29 804.70 831.22 818.75 854.69 855.18 896.30 884.84 922.81 913.97 926.38 981.80 962.26 1005.10 997.26 1004.46 1007.86 1037.10 1023.78 1059.33 1040.93 1047.17 1056.81 1040.26 1060.81 1082.83 1060.44 1080.09 1088.55 1103.92 1114.55 1127.43 1133.39 1134.29 1136.28 1120.81 1126.82 1121.10 1119.99 1100.17 1104.96 1103.65 1113.46 1118.86 1113.24 1118.01 1120.15 1126.60 1114.40 1132.85 1128.29 1132.47 1150.40 1139.37 1138.47 1138.76 1149.39 1137.29 1146.74 1138.40 1138.05 1127.40 1144.72 1152.48 1146.49 1140.68 1147.62 1149.83 1150.63 1159.14 1166.93 1174.81 1163.37 1139.66 1149.21 1147.40 1149.47 1131.54 1138.83 1118.47 1101.61 1110.73 1080.53 1100.02 1080.79 1071.57 1069.36 1108.50 1076.11 1090.67 1073.54 1085.17 1084.28 1080.07 1075.83 1093.62 1069.74 1104.54 1071.78 1107.35
1613.12 1604.40 1620.62 1629.09 1634.50 1618.13 1642.20 1642.78 1646.33 1679.42 1690.13 1689.45 1674.71 1720.89 1698.62 1700.56 1685.51 1689.93 1699.86 1691.31 1695.68 1680.77 1671.87 1682.57 1680.86 1677.21 1636.64 1671.81 1675.21 1646.07 1656.38 1657.59 1662.18 1658.37 1604.02 1616.60 1595.92 1600.49 1584.96 1587.00 1555.67 1539.26 1550.64 1528.89 1522.43 1530.62 1508.56 1501.77 1502.65 1521.34 1490.73 1510.16 1510.32 1501.25 1494.36 1466.07 1443.70 1475.33 1460.83 1442.85 1418.81 1431.27 1435.02 1403.08 1393.35 1389.08 1394.64 1425.26 1406.59 1377.58 1382.71 1403.00 1381.84 1365.66 1389.80 1354.79 1345.66 1354.78 1325.52 1337.50 1327.33 1281.13 1294.74 1277.60 1267.90 1244.66 1284.87 1270.72 1258.76 1271.15 1278.08 1281.48 1267.66 1261.21 1260.37 1264.31 1254.08 1254.72 1247.82 1230.27 1290.92 1262.38 1251.84 1269.20 1267.01 1271.46 1271.88 1303.58 1277.73 1323.51 1335.26 1319.58 1323.48 1328.76 1356.44 1362.89 1354.45 1357.03 1327.66 1345.78 1353.86 1350.25 1332.85 1355.83 1341.39 1361.65 1340.44 1332.16 1344.27 1336.33 1353.98 1356.95 1333.17 1341.77 1309.43 1316.55 1306.59 1296.95 1269.49 1281.16 1273.61 1252.13 1257.82 1248.81 1233.15 1215.07 1217.01 1249.86 1224.03 1226.45 1221.88 1210.00 1223.49 1200.75 1217.98 1203.98 1192.42 1179.73 1178.76 1162.26 1160.47 1148.19 1139.93 1122.45 1114.14 1134.26 1137.31 1123.23 1120.83 1121.62 1114.24 1112.63 1117.26 1102.92 1094.65 1081.40 1050.61 1048.97 1043.97 1012.24 997.60 1017.38 979.58 962.50 959.70 956.06 960.06 962.74 952.03 943.28 968.47 926.55 930.80 935.71 935.70 928.84 941.65 893.85 882.08 908.91 880.72 883.31 895.38 911.46 878.22 919.83 904.33 923.88 923.32 932.37 922.20 949.62 934.48 966.13 969.50 959.73 952.70 961.04 950.20 955.59 960.15 936.91 960.40 964.48 949.08 943.96 954.95 961.59 928.61 934.83 949.59 940.78 950.55 937.29 942.22 924.33 909.94 894.63 896.62 866.28 888.75 873.67 862.55 831.75 864.26 881.50 868.63 859.55 860.79 850.80 888.62 852.34 864.22 882.72 876.39 859.88 838.54 823.14 818.72 840.88 821.42 802.05 813.67 788.04 800.13 823.56 832.55 813.67 829.15 808.33 818.67 818.19 811.98 833.08 806.18 801.01 813.15 808.54 777.03 795.95 761.49 776.81 768.30 743.02 768.02 764.04 773.74 745.10 764.42 762.28 780.83 772.75 758.80 789.31 796.44 791.11 779.21 797.06 785.27 801.93 825.08 806.69 847.45 851.54 844.80 862.91 908.52 894.16 934.09 938.32 962.97 937.81 974.32 1010.07 1020.23 1004.40 1027.34 1043.82 1019.22 1043.05 1045.72 1031.39 1057.08 1051.10 1066.35 1062.18 1090.60 1093.40 1089.43 1106.03 1104.59 1121.28 1135.88 1125.71 1104.99 1115.85 1112.76 1138.75 1122.08 1136.54 1114.46 1104.35 1101.71 1116.96 1108.26 1115.24 1111.07 1124.00 1119.87 1114.12 1127.92 1162.27 1130.69 1166.19 1150.92 1148.88 1152.53 1134.33 1158.10 1151.50 1158.91 1138.67 1153.45 1141.73 1150.33 1118.77 1143.92 1149.96 1159.81 1163.84 1174.58 1175.18 1166.27 1142.00 1151.04 1135.88 1129.61 1124.69 1145.82 1106.07 1103.86 1100.18 1111.12 1075.21 1097.69 1084.67 1060.19 1091.87 1092.47 1082.86 1119.99 1082.84 1096.49 1086.13 1091.83 1102.25 1069.43 1094.86 1069.96 1091.33
1617.40 1627.30 1627.76 1628.34 1620.21 1626.77 1643.84 1651.88 1651.29 1652.84 1670.64 1694.21 1705.51 1691.21 1697.08 1721.17 1695.13 1692.25 1709.57 1694.61 1678.30 1670.98 1682.54 1671.52 1665.44 1667.06 1654.20 1677.57 1673.30 1685.21 1659.76 1661.38 1639.29 1641.93 1641.10 1616.18 1605.99 1600.55 1582.36 1570.76 1564.64 1558.78 1542.21 1539.57 1501.29 1528.83 1498.15 1501.32 1502.35 1506.69 1484.65 1510.35 1499.78 1485.02 1492.22 1476.91 1470.11 1468.96 1451.90 1439.74 1437.76 1427.63 1425.97 1420.22 1383.31 1385.49 1405.17 1412.79 1406.95 1405.09 1391.06 1397.86 1375.65 1391.32 1363.66 1367.92 1372.52 1352.85 1334.05 1329.40 1318.88 1293.46 1277.56 1293.39 1278.38 1269.95 1267.70 1255.34 1259.79 1277.45 1264.68 1259.95 1267.30 1271.62 1265.67 1245.44 1255.36 1276.57 1255.01 1250.13 1270.83 1267.48 1248.24 1268.02 1259.93 1285.82 1290.86 1296.16 1296.48 1323.21 1316.79 1342.73 1356.93 1336.15 1365.66 1340.94 1353.58 1348.63 1329.33 1341.55 1337.41 1364.23 1351.70 1333.12 1336.87 1332.19 1349.04 1348.22 1332.03 1351.65 1331.56 1345.05 1328.07 1334.81 1321.09 1322.57 1335.61 1299.60 1293.31 1261.15 1263.33 1256.19 1232.92 1238.70 1199.94 1223.71 1205.68 1218.98 1236.92 1231.42 1211.94 1215.10 1203.63 1238.42 1213.13 1188.93 1169.17 1184.31 1185.99 1172.52 1145.96 1145.22 1142.38 1148.90 1138.35 1128.26 1144.82 1106.60 1131.91 1106.26 1106.24 1096.37 1116.60 1083.12 1058.54 1085.19 1071.01 1053.29 1031.81 1022.96 1026.29 1010.30 991.51 993.13 966.67 972.27 938.57 957.99 944.82 939.57 927.11 947.62 931.64 936.51 938.29 933.31 911.02 939.22 909.37 919.70 890.14 894.16 889.56 907.77 910.66 881.36 916.08 916.17 919.13 920.81 947.13 959.16 965.49 963.23 968.66 961.78 968.32 982.51 966.09 955.12 928.50 940.54 948.87 957.11 971.34 955.19 942.22 982.40 947.40 942.42 965.44 943.04 945.74 954.21 934.24 942.64 910.67 910.04 880.05 888.12 882.75 887.57 865.18 871.51 849.18 842.17 872.28 869.78 860.87 835.40 867.38 858.12 861.97 863.86 869.16 861.90 831.29 845.47 841.95 841.13 814.63 792.88 800.63 815.38 820.70 792.21 819.33 805.49 807.66 820.40 847.13 830.04 823.28 806.43 830.85 804.09 830.88 792.32 765.31 784.22 770.84 775.15 774.30 757.79 757.09 744.27 756.25 781.35 777.13 773.52 792.34 789.22 799.43 797.63 779.53 811.18 829.50 810.30 803.71 784.62 814.22 831.78 833.00 854.30 855.23 878.48 886.95 896.44 909.95 960.47 955.05 954.61 978.17 1003.77 1003.93 1018.99 1051.50 1020.85 1051.74 1055.15 1044.36 1071.16 1064.88 1038.69 1065.79 1084.46 1089.87 1097.16 1066.59 1116.46 1136.71 1120.47 1148.33 1140.50 1143.82 1136.00 1108.26 1144.21 1118.82 1122.28 1100.13 1124.52 1108.52 1107.99 1113.44 1100.66 1116.62 1129.58 1140.03 1104.78 1149.25 1154.44 1153.46 1153.90 1141.95 1161.79 1139.61 1150.34 1166.35 1157.06 1123.33 1130.44 1141.46 1128.75 1142.80 1148.10 1189.51 1133.42 1173.12 1151.51 1165.79 1164.47 1152.41 1145.57 1163.04 1171.76 1141.90 1137.41 1144.70 1119.03 1110.58 1126.50 1107.56 1108.03 1084.01 1087.50 1100.31 1100.43 1094.73 1079.50 1085.01 1112.93 1105.36 1112.33 1095.33 1101.62 1090.77 1050.80 1090.53 1083.28
1596.84 1599.81 1606.96 1613.54 1619.70 1649.03 1656.29 1640.89 1661.80 1663.47 1656.40 1681.88 1690.37 1692.82 1688.76 1701.43 1703.15 1720.65 1700.27 1662.59 1702.33 1701.52 1678.38 1667.59 1682.88 1663.37 1655.10 1672.35 1679.14 1659.56 1667.41 1691.12 1647.32 1655.66 1633.50 1641.49 1619.19 1611.41 1578.38 1577.01 1568.10 1580.59 1551.64 1548.61 1520.95 1524.47 1492.27 1515.38 1529.02 1514.04 1514.55 1504.20 1493.34 1497.08 1494.48 1468.85 1494.94 1457.31 1443.47 1456.08 1422.98 1449.04 1406.47 1416.12 1398.10 1407.56 1394.51 1426.78 1390.98 1387.26 1412.69 1389.58 1359.51 1382.93 1374.04 1363.83 1363.11 1330.79 1325.76 1322.44 1304.21 1286.27 1276.38 1286.08 1267.00 1267.88 1279.72 1287.81 1283.80 1276.90 1267.65 1259.90 1265.62 1288.46 1287.59 1257.31 1252.91 1254.86 1268.43 1257.83 1258.48 1260.61 1259.33 1250.57 1279.60 1270.56 1299.69 1305.03 1317.95 1299.03 1326.95 1344.40 1335.25 1352.33 1355.37 1333.23 1334.44 1344.43 1337.37 1357.44 1345.24 1346.24 1325.86 1352.33 1355.63 1334.39 1346.54 1342.99 1353.55 1348.70 1339.73 1344.71 1345.17 1341.05 1343.44 1298.05 1303.46 1295.06 1301.08 1264.84 1265.54 1246.13 1232.13 1233.74 1252.57 1221.61 1231.97 1220.66 1225.47 1208.03 1225.04 1215.37 1219.52 1206.95 1232.84 1203.00 1192.22 1202.27 1175.31 1161.66 1167.46 1148.15 1130.98 1130.29 1118.33 1123.75 1152.87 1127.46 1155.14 1131.67 1126.09 1109.53 1100.09 1105.28 1103.58 1048.97 1068.13 1050.83 1037.64 1050.79 1000.15 1003.69 1001.15 979.88 966.25 964.65 968.23 946.43 951.67 948.41 931.85 925.66 955.72 945.33 940.57 929.66 921.99 919.55 907.29 908.49 889.23 911.24 897.51 902.91 903.93 897.39 919.15 916.90 924.31 920.53 926.01 937.98 954.16 956.24 949.17 961.66 951.09 944.90 957.74 961.03 954.45 925.42 935.79 957.81 939.82 945.84 966.50 955.84 952.67 936.10 969.39 952.55 939.47 951.95 919.94 940.00 903.41 906.58 883.44 890.35 904.19 873.48 854.89 881.87 857.25 850.02 848.01 850.05 848.44 849.22 878.52 885.23 864.50 858.85 877.83 842.66 861.74 856.74 827.10 822.81 827.36 817.08 791.21 810.26 808.31 814.68 845.54 836.71 823.87 829.68 843.48 827.97 826.68 823.32 826.35 826.08 810.18 809.80 792.85 763.37 761.17 746.91 760.36 762.00 737.58 745.60 760.19 762.60 780.06 778.75 770.53 777.56 792.31 798.56 789.08 794.66 795.53 826.73 811.79 820.14 804.24 816.95 852.35 838.32 854.97 854.33 895.46 895.01 919.53 959.64 960.21 969.70 970.54 1020.02 1022.37 1013.23 1029.31 1042.42 1027.74 1065.74 1072.62 1046.18 1057.51 1068.37 1092.55 1087.96 1102.99 1105.10 1099.67 1124.04 1134.13 1135.77 1128.65 1141.69 1119.10 1140.52 1127.65 1144.30 1125.50 1133.28 1120.53 1091.45 1105.72 1120.16 1118.04 1098.25 1110.80 1131.50 1152.53 1150.63 1153.42 1140.75 1166.51 1148.30 1150.48 1165.57 1183.19 1149.69 1167.17 1139.88 1139.90 1159.05 1127.13 1171.48 1127.47 1162.60 1155.65 1158.20 1163.08 1161.60 1154.43 1167.99 1159.38 1162.96 1178.59 1158.71 1142.16 1138.81 1121.79 1105.33 1109.48 1125.14 1110.74 1092.81 1087.30 1060.81 1076.99 1093.37 1096.39 1095.74 1109.36 1091.81 1115.53 1116.21 1095.81 1082.88 1066.45 1095.41 1102.64 1101.19
1618.02 1621.29 1601.83 1624.02 1619.18 1622.15 1636.17 1655.39 1677.00 1685.02 1675.60 1671.47 1661.67 1710.25 1692.90 1714.62 1714.64 1708.16 1717.02 1688.05 1690.33 1685.21 1692.87 1675.46 1664.20 1686.00 1683.78 1645.80 1669.49 1669.69 1646.29 1664.85 1654.88 1647.86 1613.34 1633.16 1600.47 1602.02 1585.20 1576.23 1573.90 1556.98 1552.04 1543.52 1497.06 1513.80 1531.39 1516.57 1506.41 1500.26 1478.23 1512.82 1491.14 1496.81 1485.66 1465.23 1458.86 1467.31 1476.79 1416.27 1431.55 1406.88 1423.39 1399.52 1411.82 1429.80 1423.75 1399.11 1394.51 1412.81 1404.55 1386.94 1381.80 1380.08 1347.94 1359.23 1363.42 1348.03 1330.76 1322.99 1315.16 1293.61 1293.92 1292.06 1271.33 1289.09 1272.33 1259.09 1258.64 1265.75 1273.80 1249.78 1259.64 1269.59 1276.50 1273.58 1280.39 1267.25 1259.88 1241.03 1250.91 1238.76 1241.01 1249.29 1277.59 1285.17 1280.68 1297.69 1300.28 1310.91 1320.93 1313.25 1325.18 1371.41 1355.52 1359.92 1333.64 1346.11 1333.88 1345.55 1355.41 1349.40 1329.46 1319.53 1347.60 1330.81 1344.57 1327.57 1347.84 1342.73 1343.78 1352.48 1344.40 1336.88 1335.52 1321.85 1300.66 1307.78 1285.68 1280.23 1268.57 1268.71 1237.74 1239.19 1219.85 1231.97 1221.51 1240.57 1233.80 1222.32 1208.03 1219.37 1198.87 1213.14 1211.35 1203.25 1209.07 1182.46 1196.76 1168.48 1168.48 1151.96 1143.91 1137.70 1134.13 1142.81 1117.20 1112.31 1123.59 1140.33 1137.85 1112.69 1121.83 1097.56 1090.23 1101.30 1094.45 1060.32 1015.04 1010.10 1012.55 1017.04 974.40 972.29 977.43 942.22 946.76 965.55 956.37 973.35 940.93 966.02 926.12 938.59 923.13 910.46 912.17 897.22 932.94 912.18 876.40 897.33 889.86 893.11 896.14 906.46 901.53 918.33 937.06 930.26 965.69 961.10 955.51 960.29 950.89 987.01 973.09 957.74 963.33 955.97 969.25 957.05 950.80 946.68 913.65 944.18 951.15 950.38 931.94 946.43 956.45 945.17 945.90 937.97 937.67 928.30 925.38 870.92 885.75 885.86 871.45 885.53 876.21 861.54 878.49 850.09 874.24 876.41 866.44 867.87 887.29 845.91 848.90 855.88 866.15 866.07 826.87 843.82 856.02 817.34 818.12 830.98 805.85 821.51 819.14 813.05 806.77 825.79 801.85 813.08 844.94 834.87 840.11 822.96 836.33 820.84 803.00 812.38 797.41 769.41 779.18 766.94 774.54 771.43 755.06 746.22 786.22 767.68 793.77 792.89 781.92 781.34 792.80 807.72 798.13 807.59 820.05 811.41 807.39 827.28 844.70 854.49 830.59 840.34 822.28 864.84 897.20 898.18 934.05 949.63 954.08 991.16 976.43 997.79 1027.79 1014.64 1027.06 1047.32 1054.45 1038.99 1062.10 1052.56 1050.21 1083.58 1081.58 1081.75 1102.41 1100.72 1117.13 1111.79 1127.03 1116.23 1145.49 1122.76 1146.23 1137.69 1118.58 1131.94 1151.92 1130.55 1126.99 1127.61 1113.75 1109.94 1132.60 1098.11 1142.49 1109.66 1122.21 1146.78 1151.21 1138.60 1146.98 1172.26 1167.65 1163.43 1169.42 1163.67 1172.50 1156.86 1155.58 1142.15 1160.18 1146.34 1149.17 1185.73 1167.45 1182.41 1158.61 1162.09 1144.37 1201.55 1167.53 1189.08 1167.99 1158.77 1131.87 1167.42 1132.21 1119.40 1128.83 1087.50 1105.61 1116.06 1110.09 1087.49 1091.70 1116.92 1099.10 1101.57 1109.62 1111.63 1118.63 1097.49 1102.92 1090.91 1092.14 1102.57 1111.55 1065.58
1622.20 1604.96 1638.79 1625.04 1608.46 1627.14 1663.27 1630.83 1665.00 1676.79 1674.85 1695.62 1679.13 1725.44 1723.07 1713.05 1705.23 1691.75 1692.48 1686.75 1687.73 1693.91 1669.19 1691.69 1656.87 1676.10 1676.88 1680.10 1676.14 1665.89 1656.20 1670.74 1668.64 1651.93 1631.92 1625.23 1626.12 1585.97 1576.22 1559.88 1563.06 1544.00 1534.12 1538.15 1525.95 1517.71 1508.73 1491.32 1506.80 1512.11 1524.99 1488.19 1493.67 1492.51 1487.94 1486.81 1477.97 1481.93 1456.96 1464.20 1433.28 1417.56 1422.33 1395.16 1410.47 1400.24 1396.86 1392.59 1401.19 1412.66 1385.71 1401.60 1392.69 1388.07 1391.55 1371.05 1365.77 1342.19 1322.66 1313.85 1300.71 1289.90 1294.42 1311.28 1287.95 1262.43 1279.49 1269.90 1264.83 1258.89 1280.99 1257.86 1285.19 1264.89 1236.14 1263.36 1243.19 1260.48 1245.66 1263.73 1259.76 1240.14 1262.79 1252.30 1254.23 1276.98 1282.36 1276.48 1310.67 1302.45 1340.31 1343.67 1343.96 1343.58 1350.72 1334.93 1368.43 1349.51 1340.55 1333.35 1334.15 1322.56 1324.00 1333.43 1328.39 1334.95 1335.25 1353.52 1359.75 1334.39 1317.20 1354.53 1337.13 1311.12 1324.92 1302.30 1323.43 1290.06 1294.00 1260.50 1252.63 1247.13 1243.87 1232.34 1214.27 1223.51 1213.88 1220.87 1228.48 1242.50 1230.50 1213.09 1204.55 1227.14 1209.37 1190.27 1221.31 1189.05 1174.24 1163.06 1173.47 1145.26 1142.58 1158.23 1145.15 1124.86 1126.84 1128.00 1096.98 1136.16 1095.54 1134.61 1091.52 1124.26 1086.10 1091.95 1071.44 1047.33 1033.74 1010.44 988.31 992.13 980.17 987.81 950.85 950.75 959.42 957.95 957.42 951.32 941.33 941.29 946.43 948.61 927.21 921.51 928.03 902.30 903.23 912.03 888.70 896.91 889.87 893.69 905.84 899.72 894.64 922.14 928.86 924.91 951.30 942.47 962.82 971.56 955.93 967.49 975.86 954.11 954.95 943.19 956.89 970.70 943.85 945.54 933.55 926.19 950.27 973.90 940.93 985.96 941.60 948.24 971.42 957.40 960.67 958.49 910.46 907.83 914.75 877.78 877.06 857.38 851.78 859.33 854.73 856.73 872.43 845.44 834.62 862.59 860.39 855.09 849.27 855.63 850.42 854.23 852.04 843.93 830.38 838.97 821.93 815.51 810.21 819.21 802.96 817.58 824.76 815.01 821.32 800.09 842.01 855.55 828.74 836.67 840.50 815.65 826.63 812.96 779.49 788.37 759.45 785.87 748.03 760.55 729.79 744.28 746.99 766.60 769.28 778.98 791.10 805.48 782.31 788.19 800.80 820.49 795.03 836.06 798.85 800.45 842.12 833.39 848.57 859.13 848.24 894.12 902.43 915.63 932.39 950.37 951.45 975.63 999.62 1003.26 1019.43 1027.87 1039.84 1049.31 1049.21 1061.28 1052.63 1068.86 1081.66 1072.72 1102.86 1078.83 1110.98 1134.56 1136.86 1137.92 1146.87 1133.82 1161.73 1137.86 1140.64 1120.90 1153.11 1145.99 1132.27 1139.19 1135.50 1105.55 1147.50 1123.17 1128.38 1145.84 1118.36 1124.86 1130.51 1148.81 1176.04 1146.50 1174.47 1165.46 1150.08 1141.04 1170.23 1150.11 1167.39 1164.54 1152.14 1153.61 1171.37 1159.56 1158.24 1203.84 1178.18 1151.06 1173.45 1171.40 1177.47 1176.84 1188.07 1179.49 1173.00 1180.25 1154.38 1140.66 1149.59 1124.81 1148.35 1111.50 1109.03 1105.17 1077.35 1099.37 1073.32 1108.71 1095.69 1089.33 1108.03 1099.49 1081.49 1108.21 1109.01 1107.84 1121.51 1083.84 1074.89 1087.30
1595.25 1607.51 1607.69 1618.71 1619.28 1635.48 1631.36 1647.44 1673.58 1662.62 1675.05 1693.31 1685.78 1690.05 1696.33 1707.59 1697.38 1683.22 1683.92 1698.31 1676.30 1685.13 1698.78 1679.82 1643.69 1654.84 1656.84 1671.97 1655.88 1669.04 1677.64 1678.55 1670.00 1637.69 1638.80 1623.03 1637.52 1606.87 1590.41 1560.10 1563.64 1561.66 1529.21 1542.05 1525.89 1511.43 1514.54 1514.97 1484.68 1517.68 1506.61 1491.01 1497.27 1500.90 1512.54 1473.87 1484.70 1456.94 1434.03 1433.05 1437.92 1442.76 1406.10 1403.83 1425.73 1397.47 1405.01 1402.59 1399.40 1399.67 1390.79 1401.48 1403.88 1366.19 1378.79 1389.09 1357.07 1340.03 1322.53 1311.36 1305.15 1290.19 1293.43 1277.07 1275.71 1257.50 1253.83 1265.93 1244.96 1279.97 1273.87 1258.04 1279.49 1270.58 1265.51 1268.79 1252.95 1263.14 1269.00 1245.51 1267.90 1252.85 1249.13 1252.57 1257.09 1265.08 1293.28 1300.56 1308.44 1331.30 1337.05 1340.73 1351.39 1323.58 1334.72 1343.12 1352.70 1365.86 1342.59 1361.31 1340.91 1345.84 1333.39 1354.17 1358.06 1330.05 1328.24 1346.64 1332.83 1341.66 1360.26 1332.92 1342.08 1340.13 1318.26 1327.96 1328.68 1275.04 1295.36 1270.72 1263.58 1259.67 1245.54 1238.67 1249.11 1204.55 1210.59 1224.29 1209.96 1214.44 1195.21 1234.94 1221.55 1210.09 1208.85 1208.03 1178.49 1174.74 1181.59 1172.70 1174.03 1160.33 1125.28 1154.13 1123.01 1126.44 1135.73 1125.71 1117.44 1096.55 1116.08 1106.69 1125.66 1106.11 1102.53 1063.05 1059.96 1072.81 1049.36 1013.23 1003.32 992.22 976.05 945.53 936.21 958.04 927.97 952.94 916.50 945.39 934.97 933.70 931.16 947.56 929.04 906.19 915.76 902.54 893.97 914.13 919.30 908.38 899.83 900.82 903.90 910.74 904.92 912.29 927.02 931.52 910.34 911.71 958.51 939.33 966.95 952.30 948.70 955.71 956.13 932.95 938.50 938.83 940.18 947.20 945.95 946.94 957.43 951.41 949.00 974.70 941.28 945.69 929.85 923.05 939.39 933.09 942.49 908.44 898.72 870.49 883.23 870.48 861.29 853.88 837.97 843.71 859.90 843.02 860.01 850.67 848.53 883.15 864.95 859.89 879.12 855.52 839.52 843.48 829.57 825.08 827.05 843.99 778.78 808.59 840.28 783.68 840.05 814.68 812.34 839.92 828.41 819.00 816.07 815.73 827.29 814.33 805.95 810.81 785.98 789.80 784.29 757.56 776.08 766.85 754.46 779.29 784.55 784.58 771.04 760.83 784.16 796.80 795.97 803.24 802.25 782.75 811.42 814.34 818.14 846.89 808.42 815.68 826.08 857.14 867.40 860.40 879.91 916.08 932.66 932.97 989.26 1001.76 1008.09 1015.10 1008.42 1041.60 1028.70 1039.15 1057.25 1050.47 1076.14 1058.38 1075.23 1074.70 1081.76 1114.73 1093.62 1125.88 1112.19 1128.08 1123.83 1160.88 1147.42 1131.69 1134.76 1139.68 1148.66 1125.09 1131.69 1144.18 1117.22 1108.48 1139.37 1136.52 1120.68 1124.23 1132.09 1150.25 1125.01 1138.24 1157.80 1154.18 1161.26 1155.53 1170.26 1173.22 1177.93 1169.04 1173.67 1147.72 1153.56 1147.08 1175.93 1164.54 1155.87 1147.20 1152.01 1186.15 1185.18 1173.72 1169.66 1169.90 1171.42 1181.94 1175.35 1190.97 1154.78 1154.03 1139.40 1127.55 1144.67 1130.54 1134.63 1113.25 1087.16 1103.07 1091.93 1113.62 1109.97 1096.99 1090.91 1078.64 1104.00 1115.14 1097.04 1098.20 1115.13 1102.45 1077.26 1083.41
1608.06 1602.04 1611.87 1597.45 1612.90 1633.15 1647.31 1640.36 1647.51 1662.05 1680.43 1673.17 1699.26 1704.16 1706.59 1710.62 1693.95 1700.70 1681.15 1701.81 1675.99 1697.32 1707.19 1671.46 1675.75 1666.49 1662.35 1643.74 1663.70 1669.01 1638.37 1684.53 1642.13 1636.97 1614.97 1617.94 1606.01 1615.86 1561.92 1571.31 1568.58 1534.14 1542.02 1527.19 1518.38 1508.81 1499.56 1501.34 1492.08 1510.20 1493.38 1491.78 1463.93 1511.64 1479.69 1481.41 1486.46 1450.63 1437.64 1448.59 1435.30 1433.32 1437.29 1407.80 1387.08 1399.21 1403.07 1420.45 1393.63 1376.41 1380.01 1395.98 1393.94 1360.54 1363.72 1350.37 1341.86 1357.74 1335.34 1308.35 1308.19 1311.85 1276.17 1271.78 1280.31 1275.87 1251.22 1268.26 1270.12 1246.94 1255.71 1271.70 1237.56 1271.22 1277.71 1256.95 1253.77 1267.32 1254.24 1236.29 1246.10 1258.60 1259.88 1252.27 1260.45 1270.19 1263.05 1288.17 1288.82 1307.53 1319.42 1325.00 1330.68 1341.60 1344.61 1357.26 1342.32 1345.68 1319.49 1339.09 1352.65 1349.86 1327.97 1324.00 1322.33 1320.96 1337.60 1349.28 1338.64 1311.19 1333.38 1337.10 1334.44 1330.59 1323.60 1300.62 1273.94 1277.11 1250.26 1270.28 1233.33 1245.56 1257.45 1235.95 1213.59 1211.66 1226.59 1210.59 1201.97 1228.55 1232.75 1210.95 1211.12 1200.56 1194.54 1196.97 1186.50 1177.57 1167.08 1196.50 1139.30 1143.02 1140.69 1121.14 1124.21 1138.05 1114.13 1128.80 1121.31 1111.88 1108.49 1108.09 1088.08 1102.48 1088.85 1071.69 1054.96 1029.97 1039.02 1015.82 993.79 981.77 981.95 974.06 946.71 943.30 939.72 947.78 931.02 936.58 939.71 937.61 920.09 931.53 920.90 913.15 900.08 903.19 893.77 885.99 879.04 874.35 894.29 881.92 914.22 893.55 876.58 908.71 919.49 926.89 950.33 932.63 961.90 948.78 944.58 968.25 960.07 942.91 959.53 916.27 940.23 941.03 935.97 947.97 946.02 929.47 938.03 939.71 946.39 929.24 931.81 953.71 935.42 942.53 938.50 914.31 921.22 894.68 883.33 888.75 856.38 846.90 856.08 855.39 836.43 857.24 826.94 830.16 835.90 841.68 859.42 856.81 848.28 841.48 847.60 851.46 848.13 833.45 829.26 841.11 809.84 813.86 822.33 813.23 825.86 814.52 815.10 841.69 809.90 821.36 827.77 801.84 835.04 819.27 795.73 790.59 795.62 792.93 780.34 782.27 774.26 755.71 738.65 759.06 774.67 764.17 753.52 773.82 777.99 794.80 788.24 767.71 795.18 817.88 818.22 805.06 805.11 809.23 804.07 799.29 819.08 839.47 837.52 833.57 849.31 880.09 890.29 926.58 953.00 934.84 963.12 992.72 1009.39 1007.34 1004.92 1030.25 1030.01 1039.08 1061.97 1061.79 1060.18 1055.47 1059.70 1070.44 1097.49 1083.73 1096.98 1106.70 1122.67 1106.27 1138.73 1141.30 1152.09 1140.48 1148.48 1169.89 1131.87 1142.27 1119.93 1122.80 1115.99 1131.12 1123.46 1111.27 1135.26 1146.27 1129.83 1126.71 1133.42 1152.19 1170.55 1176.50 1168.45 1166.71 1175.83 1178.91 1179.28 1180.70 1157.52 1162.84 1177.48 1130.63 1159.00 1154.17 1176.04 1155.81 1187.46 1173.79 1169.68 1157.39 1185.22 1183.08 1175.20 1164.22 1141.88 1174.75 1163.02 1138.59 1124.78 1144.85 1125.55 1138.03 1119.06 1115.48 1106.86 1099.29 1108.50 1108.37 1091.03 1099.69 1103.09 1101.69 1126.62 1098.26 1109.83 1130.08 1085.51 1115.24 1067.71 1091.29
1576.85 1585.23 1616.88 1611.54 1629.25 1624.96 1626.33 1646.43 1675.78 1650.15 1665.37 1648.64 1686.29 1695.41 1703.25 1697.70 1697.45 1688.86 1679.36 1685.71 1666.81 1682.29 1683.82 1645.50 1671.81 1654.95 1661.81 1676.01 1641.41 1655.12 1675.13 1643.66 1630.31 1653.38 1613.86 1602.86 1598.69 1580.64 1565.32 1554.43 1546.66 1521.12 1539.62 1510.25 1503.41 1525.15 1503.99 1495.87 1517.07 1499.64 1507.85 1487.70 1501.34 1459.66 1455.56 1477.26 1481.95 1463.71 1439.85 1436.39 1444.84 1420.00 1404.84 1397.58 1412.28 1389.43 1365.16 1402.91 1405.86 1387.95 1386.70 1394.04 1384.46 1365.30 1371.35 1370.84 1357.58 1339.45 1334.21 1326.29 1276.35 1278.51 1274.15 1267.41 1280.93 1256.85 1254.06 1258.25 1275.78 1257.61 1270.46 1230.24 1266.84 1247.89 1242.75 1251.49 1248.68 1239.95 1230.72 1240.53 1234.06 1244.44 1234.78 1220.13 1258.12 1251.50 1286.84 1277.89 1289.43 1284.90 1284.99 1313.19 1334.99 1320.07 1303.30 1335.13 1328.90 1334.87 1355.74 1328.30 1336.20 1337.13 1332.02 1330.10 1298.02 1336.03 1311.88 1316.40 1319.99 1329.35 1329.48 1330.55 1345.33 1307.43 1300.12 1309.90 1283.92 1298.76 1266.99 1250.86 1257.67 1231.90 1236.65 1227.50 1212.86 1207.54 1216.60 1198.19 1190.62 1199.20 1192.20 1188.52 1194.84 1201.43 1216.64 1194.83 1172.59 1151.73 1149.79 1146.55 1161.21 1142.24 1128.59 1116.32 1138.52 1105.63 1134.92 1125.38 1117.82 1130.15 1122.06 1092.81 1096.73 1108.22 1082.04 1071.53 1066.32 1045.62 1000.92 1014.64 1005.97 993.19 971.61 974.20 954.07 962.20 940.75 942.70 915.90 926.75 946.86 942.22 919.20 913.55 929.19 916.61 898.20 941.19 917.96 873.92 889.18 876.94 886.30 885.61 873.01 885.30 886.26 909.14 912.29 906.13 915.43 941.63 951.85 965.17 931.34 937.88 966.30 923.48 926.42 917.27 947.87 910.48 933.46 933.07 934.31 922.72 925.78 921.69 935.04 947.35 922.30 932.32 923.36 912.53 915.62 927.54 892.66 897.45 872.41 873.22 883.79 857.82 852.14 845.29 859.62 835.63 842.01 829.57 838.30 850.64 847.65 839.01 832.63 858.76 857.90 822.67 844.14 841.54 814.08 821.38 836.89 813.28 802.20 798.57 802.32 812.81 815.21 820.98 807.63 813.44 825.84 811.43 828.57 812.34 800.27 786.12 799.12 805.65 766.47 768.93 767.56 746.15 753.81 791.53 753.71 764.19 768.86 780.40 798.31 769.49 761.79 794.06 782.19 817.72 807.40 798.59 796.06 804.84 819.18 804.97 796.87 843.88 866.15 860.90 867.16 884.56 864.82 890.36 938.05 960.84 956.49 956.55 1007.88 999.88 992.24 1025.46 1042.46 1034.98 1040.53 1062.53 1072.63 1084.41 1055.96 1088.54 1083.94 1090.16 1097.65 1131.22 1125.47 1130.88 1118.85 1143.96 1138.90 1150.29 1158.87 1135.31 1131.37 1145.05 1142.30 1121.99 1126.25 1144.52 1137.67 1123.24 1118.99 1140.38 1130.83 1173.75 1175.36 1156.39 1134.01 1171.54 1155.98 1153.83 1188.49 1157.67 1155.95 1169.75 1170.59 1155.49 1155.60 1183.35 1176.02 1173.22 1167.48 1140.90 1160.69 1160.95 1177.38 1160.33 1193.73 1177.99 1189.02 1179.71 1190.25 1162.30 1155.29 1139.02 1127.24 1127.49 1120.90 1110.61 1108.36 1115.10 1103.96 1093.81 1081.62 1074.28 1104.00 1082.66 1104.21 1098.55 1103.31 1085.45 1101.84 1096.09 1076.27 1102.13 1083.09 1091.39
1605.07 1579.68 1573.57 1614.29 1607.13 1597.67 1628.96 1646.82 1657.05 1661.20 1664.23 1657.27 1660.82 1692.73 1678.80 1697.57 1672.38 1693.54 1677.91 1671.98 1689.10 1690.60 1644.47 1654.67 1654.84 1656.32 1648.94 1633.44 1641.87 1646.16 1633.28 1654.93 1646.46 1650.37 1649.09 1614.71 1584.40 1564.31 1589.54 1553.71 1542.70 1544.87 1515.49 1493.33 1497.67 1475.24 1494.30 1476.74 1499.32 1501.15 1479.72 1471.96 1477.63 1462.81 1473.02 1470.43 1469.17 1434.39 1441.52 1434.21 1407.52 1398.23 1415.93 1387.00 1389.62 1404.30 1376.47 1379.03 1384.21 1377.16 1388.58 1394.96 1385.26 1370.73 1348.67 1338.92 1328.71 1322.23 1307.77 1312.77 1286.46 1283.10 1263.65 1272.64 1273.18 1268.73 1251.90 1239.99 1261.59 1251.02 1251.00 1240.32 1252.42 1259.41 1282.29 1250.99 1231.77 1235.93 1240.14 1223.02 1249.61 1222.87 1228.36 1218.48 1256.09 1269.53 1274.12 1257.28 1295.82 1290.69 1294.59 1332.88 1335.06 1360.92 1340.88 1314.12 1356.59 1329.43 1329.74 1345.64 1328.28 1335.11 1321.96 1322.63 1313.58 1298.53 1307.16 1321.45 1305.06 1325.88 1324.74 1331.33 1315.59 1318.31 1279.65 1288.42 1290.80 1270.85 1264.35 1238.77 1235.89 1220.02 1231.54 1203.98 1192.59 1195.05 1198.65 1212.56 1206.78 1198.53 1204.63 1193.09 1186.72 1174.60 1199.71 1187.42 1173.63 1177.49 1162.76 1147.58 1131.17 1115.30 1136.90 1135.83 1110.21 1120.35 1123.84 1109.23 1095.01 1114.60 1093.75 1108.70 1096.03 1086.82 1070.02 1048.40 1044.51 1022.96 992.78 981.08 979.44 972.32 992.10 952.26 950.80 935.36 911.69 937.46 922.35 931.92 935.43 930.46 913.87 913.23 899.99 890.41 892.14 880.74 870.78 850.95 867.97 860.33 877.34 877.82 885.07 874.69 859.06 875.69 919.99 889.28 889.53 926.56 914.12 924.88 930.84 940.79 920.18 910.46 914.06 907.39 923.29 933.63 918.90 915.93 912.47 908.81 924.16 905.97 920.90 920.60 922.10 929.89 930.29 894.37 909.30 893.90 904.90 891.14 886.00 861.71 867.59 858.05 823.23 815.41 831.58 819.02 832.33 812.92 835.31 823.09 843.65 834.75 843.71 825.52 837.67 814.98 821.47 816.35 809.90 807.49 779.29 803.25 796.70 805.94 776.79 809.38 777.82 811.65 811.28 805.93 825.23 789.26 804.81 808.96 814.09 801.76 785.71 789.06 772.11 747.72 766.82 757.64 743.57 742.54 746.27 729.57 742.33 773.13 752.70 762.19 758.74 784.06 779.82 789.69 789.73 773.48 796.24 802.56 804.72 825.66 841.50 830.93 820.80 861.74 846.44 891.62 895.39 908.05 916.79 935.41 968.09 971.64 991.26 1011.58 1017.98 1038.61 1019.48 1025.37 1062.87 1042.84 1059.76 1061.06 1059.45 1056.01 1094.83 1076.78 1108.51 1094.58 1110.62 1109.60 1122.47 1137.39 1125.78 1136.73 1145.69 1152.30 1131.57 1118.09 1134.52 1144.72 1113.12 1123.58 1128.57 1111.08 1111.12 1116.03 1140.90 1128.01 1148.91 1153.20 1152.60 1154.48 1151.32 1194.33 1174.90 1143.29 1164.34 1156.53 1160.42 1182.30 1133.08 1168.12 1159.45 1172.26 1160.61 1141.98 1157.03 1145.18 1196.34 1173.37 1164.28 1174.26 1187.26 1178.69 1185.14 1164.43 1155.02 1128.21 1125.53 1122.93 1135.77 1098.50 1110.44 1109.10 1105.46 1087.07 1081.09 1084.13 1090.48 1095.14 1105.81 1095.46 1115.87 1096.30 1088.79 1080.60 1115.26 1099.48 1084.03 1102.46
1598.60 1585.59 1600.04 1608.62 1587.85 1595.25 1619.41 1631.00 1659.56 1635.60 1661.37 1679.20 1644.91 1671.91 1673.47 1681.44 1688.70 1665.05 1691.08 1680.21 1657.48 1667.07 1664.58 1667.19 1643.20 1632.86 1636.87 1638.67 1642.40 1630.48 1641.17 1644.41 1638.30 1652.16 1611.72 1588.93 1575.46 1579.93 1556.48 1531.77 1541.54 1512.49 1508.89 1520.92 1485.55 1475.11 1467.94 1477.85 1467.29 1463.66 1468.08 1465.31 1458.18 1495.34 1484.90 1449.29 1438.59 1435.34 1414.49 1405.50 1403.09 1396.55 1405.73 1383.98 1385.29 1373.96 1403.15 1407.06 1391.13 1384.09 1349.78 1375.68 1385.02 1333.70 1359.32 1372.60 1330.98 1320.95 1337.86 1312.61 1249.90 1260.46 1277.23 1234.04 1236.35 1236.29 1232.22 1230.49 1236.90 1227.27 1202.66 1245.54 1253.09 1239.33 1244.57 1254.60 1240.30 1230.41 1247.70 1240.72 1222.73 1234.87 1232.95 1263.44 1258.16 1249.48 1264.15 1239.40 1273.11 1283.94 1298.45 1295.24 1309.29 1319.76 1312.48 1318.55 1316.68 1333.99 1335.36 1343.48 1313.67 1334.52 1298.79 1289.59 1306.93 1312.76 1290.40 1306.40 1312.29 1304.52 1308.67 1311.68 1321.21 1310.24 1300.06 1264.14 1274.98 1280.20 1255.91 1249.25 1219.89 1207.83 1205.27 1223.91 1200.09 1216.59 1182.48 1169.18 1188.48 1183.15 1203.24 1207.92 1204.68 1188.13 1186.52 1179.31 1154.94 1157.54 1146.55 1129.55 1125.11 1113.77 1122.68 1118.81 1112.97 1097.55 1108.15 1090.87 1090.25 1089.23 1102.87 1081.20 1070.18 1058.45 1057.09 1026.71 1042.68 1014.72 975.78 975.90 968.30 960.02 950.17 952.20 934.38 928.67 928.61 908.93 915.31 910.82 928.38 911.83 911.92 904.95 907.73 907.48 888.07 869.96 872.55 852.48 844.10 861.03 867.06 858.08 873.58 895.98 891.20 875.47 885.73 900.78 882.50 914.99 919.55 943.29 924.68 925.91 932.99 931.43 928.61 907.21 909.55 920.94 912.72 907.68 895.69 903.85 921.91 936.51 933.38 901.50 924.99 911.22 891.00 912.96 903.52 899.00 871.05 852.62 861.74 859.35 854.63 832.09 822.46 821.89 806.33 820.13 823.01 816.86 828.14 832.11 831.18 836.87 836.97 822.04 830.04 830.40 814.88 826.89 816.56 813.44 780.89 776.57 796.66 806.26 793.98 784.89 793.94 810.26 819.74 804.66 792.01 809.56 809.16 805.07 808.09 786.39 768.55 795.80 767.16 742.98 742.57 770.20 741.17 724.31 756.62 734.10 750.36 748.78 770.20 763.25 791.69 762.78 732.22 774.28 787.13 788.33 793.87 792.66 815.06 780.52 802.63 837.89 827.61 839.16 841.29 869.51 882.63 913.64 924.29 925.02 960.17 967.14 997.77 1012.72 989.50 1017.05 1015.62 1029.81 1022.20 1054.67 1038.59 1059.17 1047.27 1046.19 1072.17 1096.82 1104.54 1098.40 1093.14 1107.78 1129.81 1122.36 1134.50 1135.57 1133.33 1149.40 1120.01 1127.49 1141.25 1108.00 1135.33 1118.57 1111.76 1134.33 1092.04 1109.92 1113.25 1125.26 1115.01 1153.26 1150.81 1161.44 1169.37 1162.42 1163.12 1159.29 1178.31 1142.97 1156.10 1158.53 1149.28 1140.53 1141.94 1142.39 1147.82 1172.91 1168.21 1161.86 1162.95 1181.35 1158.36 1197.59 1159.50 1179.15 1157.68 1145.53 1138.60 1151.00 1136.95 1119.40 1096.01 1104.68 1093.53 1103.72 1090.97 1082.19 1105.14 1101.75 1110.83 1061.02 1102.76 1086.78 1095.94 1105.72 1084.20 1073.20 1076.06 1084.02 1094.82 1089.59
1593.48 1592.38 1572.01 1592.66 1584.26 1598.61 1601.64 1638.80 1617.92 1648.17 1655.46 1663.01 1652.35 1679.50 1676.88 1672.83 1671.50 1676.16 1659.27 1673.06 1656.53 1659.94 1656.66 1649.48 1636.12 1641.79 1617.38 1626.67 1635.23 1636.44 1627.08 1638.26 1625.04 1593.65 1612.65 1595.73 1594.87 1584.26 1568.89 1548.27 1541.69 1503.00 1520.92 1513.47 1504.29 1480.67 1488.30 1488.50 1466.21 1445.96 1473.16 1504.27 1441.17 1439.08 1441.02 1442.64 1430.54 1425.81 1423.81 1401.70 1401.49 1411.45 1386.58 1354.73 1369.60 1371.69 1371.24 1383.18 1375.40 1344.79 1360.22 1361.88 1364.90 1327.11 1362.03 1338.51 1316.84 1294.01 1290.37 1286.80 1272.08 1264.04 1244.77 1253.81 1228.51 1261.47 1220.99 1219.95 1250.89 1232.39 1252.02 1243.32 1210.33 1240.31 1231.73 1226.97 1204.20 1223.35 1229.17 1238.55 1202.98 1221.26 1215.16 1199.85 1222.20 1234.06 1256.02 1255.18 1251.23 1256.16 1281.61 1280.99 1294.79 1299.48 1322.23 1298.34 1292.91 1319.49 1320.95 1289.84 1294.94 1298.71 1259.97 1284.81 1307.86 1299.56 1311.30 1316.61 1305.15 1303.22 1294.03 1307.94 1311.37 1286.83 1304.03 1280.32 1271.38 1261.79 1250.04 1233.21 1230.55 1208.65 1175.42 1204.67 1159.20 1210.29 1165.06 1171.32 1184.89 1169.35 1165.93 1163.15 1179.79 1159.36 1175.24 1166.11 1122.64 1129.05 1142.99 1122.43 1113.68 1111.39 1111.86 1111.87 1094.09 1088.84 1091.02 1087.57 1085.90 1075.74 1068.75 1057.90 1070.97 1073.42 1084.17 1037.32 1021.78 1006.11 987.36 992.12 958.38 977.66 933.43 951.17 936.65 910.22 901.09 905.28 902.51 922.60 906.24 898.20 898.87 897.27 881.64 893.14 877.39 847.10 873.78 861.92 854.36 847.42 851.71 854.34 857.88 851.78 865.28 874.02 873.22 896.58 888.83 903.84 912.79 909.75 902.63 907.20 920.78 910.16 905.80 899.42 922.94 903.92 908.29 900.79 903.22 919.78 887.33 878.44 910.30 896.49 907.15 916.25 909.36 893.78 894.00 877.18 878.72 861.36 839.54 851.71 852.82 833.08 832.17 816.70 827.34 799.07 814.11 818.65 815.36 816.74 803.18 803.19 811.57 816.11 825.67 798.15 797.30 817.29 788.39 805.24 782.36 782.85 758.99 784.89 781.69 761.93 773.11 766.55 801.55 794.50 784.06 814.14 793.08 805.87 762.73 773.28 775.92 766.92 779.02 756.11 739.31 727.55 722.44 731.67 749.75 736.38 729.62 745.95 753.17 733.07 742.37 770.82 773.15 779.15 800.68 792.49 770.54 809.33 786.67 795.45 796.42 809.57 837.61 814.13 827.15 858.96 872.70 900.09 892.86 936.44 956.60 968.62 974.02 987.60 1015.46 1040.25 1032.71 1037.90 1037.76 1023.40 1067.40 1031.67 1046.92 1077.42 1090.61 1070.17 1086.84 1105.63 1103.28 1097.89 1124.48 1134.33 1130.85 1135.46 1137.64 1106.06 1119.16 1134.81 1139.92 1118.92 1109.07 1099.54 1105.81 1105.78 1107.59 1106.42 1125.59 1128.56 1111.42 1106.91 1135.67 1158.66 1168.20 1123.03 1151.73 1136.17 1152.98 1158.43 1152.33 1137.20 1173.80 1140.09 1155.51 1151.30 1127.12 1162.45 1146.74 1158.00 1147.76 1181.26 1167.32 1174.15 1189.21 1158.01 1169.90 1173.07 1121.99 1136.23 1111.78 1119.28 1090.10 1089.35 1098.41 1079.42 1094.96 1095.06 1066.79 1078.89 1072.98 1087.60 1094.15 1096.14 1099.08 1081.49 1089.73 1071.15 1091.47 1066.36 1072.59 1072.64
1548.87 1557.55 1548.14 1559.43 1571.36 1576.21 1587.49 1610.23 1617.03 1621.81 1641.55 1643.43 1664.01 1652.90 1673.04 1672.19 1676.50 1649.52 1666.27 1642.91 1637.21 1634.27 1651.59 1620.83 1618.76 1601.32 1639.06 1625.59 1623.87 1598.93 1616.30 1630.96 1612.09 1601.50 1583.32 1578.88 1575.77 1549.77 1524.31 1511.44 1505.84 1524.94 1501.61 1464.94 1504.38 1472.38 1459.42 1473.72 1464.54 1455.97 1450.66 1467.79 1430.35 1436.62 1448.14 1424.75 1413.58 1431.50 1409.53 1403.55 1397.83 1388.65 1387.44 1381.94 1374.19 1334.65 1347.73 1360.10 1361.04 1346.78 1335.22 1360.41 1345.73 1333.81 1321.88 1349.39 1277.33 1294.37 1290.37 1264.67 1266.96 1252.77 1256.61 1240.83 1235.34 1231.78 1229.43 1237.76 1205.47 1224.82 1226.17 1221.09 1215.76 1238.10 1231.12 1218.86 1226.36 1201.66 1179.23 1200.76 1206.40 1202.18 1223.26 1215.96 1219.41 1236.27 1227.00 1258.28 1245.58 1282.46 1281.21 1272.99 1304.77 1281.05 1302.69 1293.65 1278.87 1296.02 1291.76 1292.49 1280.68 1302.50 1303.92 1285.26 1305.97 1283.16 1304.38 1283.70 1273.16 1289.00 1296.24 1296.11 1284.61 1302.59 1294.46 1258.02 1261.06 1241.09 1237.52 1214.38 1213.03 1199.40 1199.13 1186.27 1191.57 1173.93 1172.30 1159.43 1167.85 1160.11 1157.09 1172.80 1174.03 1160.50 1151.90 1136.65 1145.07 1127.53 1127.41 1108.92 1128.82 1100.82 1084.29 1069.93 1086.76 1097.14 1058.32 1080.82 1069.95 1069.95 1070.13 1059.46 1053.20 1050.85 1034.08 1014.46 1019.50 981.24 969.32 977.17 947.26 924.82 960.45 946.51 919.76 907.34 910.20 915.20 901.68 887.63 911.75 879.82 876.81 881.36 881.65 871.40 841.45 862.37 854.03 868.30 833.41 845.35 818.76 846.79 861.42 844.37 863.94 872.66 884.08 888.18 891.74 886.54 904.54 915.30 905.85 907.65 918.48 902.93 922.62 889.68 889.04 883.02 901.61 896.44 875.28 886.99 884.49 899.37 889.34 896.08 886.44 883.27 917.91 886.80 902.37 877.22 859.48 857.28 820.56 809.26 812.57 812.66 790.70 802.77 796.43 802.58 796.03 772.13 811.40 789.42 791.52 819.50 812.30 819.32 801.74 790.87 825.96 798.34 786.04 775.72 765.00 756.85 762.95 773.25 768.49 773.28 787.57 758.22 775.85 776.91 780.09 792.84 767.96 791.19 803.13 751.00 766.02 768.34 773.23 751.64 742.47 731.90 734.76 717.31 727.87 706.36 747.51 738.94 734.71 742.48 776.22 788.34 774.72 764.91 779.44 784.51 776.80 784.35 799.47 804.30 795.73 811.68 821.70 822.52 837.64 839.73 889.15 887.84 910.39 903.19 951.26 972.47 978.02 999.50 987.21 1001.68 1027.34 1015.63 1021.60 1038.61 1030.23 1074.50 1041.26 1051.10 1051.19 1050.80 1075.49 1104.34 1118.03 1109.06 1119.47 1113.03 1108.16 1119.47 1122.98 1118.20 1117.80 1115.90 1102.52 1126.00 1130.44 1107.98 1101.55 1109.89 1108.27 1102.93 1110.78 1130.24 1141.15 1096.26 1147.68 1136.50 1167.82 1139.18 1156.38 1142.13 1160.90 1148.25 1144.80 1140.57 1152.31 1128.04 1130.18 1161.20 1115.45 1147.17 1142.27 1147.35 1153.55 1133.21 1154.06 1178.60 1171.26 1148.69 1170.00 1136.14 1136.88 1128.42 1119.87 1105.16 1105.84 1100.65 1088.01 1105.45 1088.66 1091.74 1089.49 1061.90 1059.37 1086.40 1090.95 1076.47 1079.71 1074.33 1072.28 1073.50 1063.48 1083.64 1047.26 1057.99
